-2.154248 9.429240 4.151172
-2.707602 10.106035 5.288741
-8.327297 13.140555 4.156476
2.603829 11.532194 -0.203389
0.517882 6.240640 5.993808
-7.146108 8.296343 -1.159626
-7.173679 7.977947 -2.053949
-0.789805 11.888258 -0.208059
-1.300842 12.539290 2.135240
-1.478461 12.465759 2.579088
-4.823016 5.735159 -0.158696
-4.629710 9.863049 -2.512026
2.944700 6.230800 -1.985000
-5.311278 3.963610 4.420654
-5.483970 4.405874 -0.727583
-5.824780 4.084213 -0.348435
-3.338300 8.077900 -2.651700
-2.356568 4.032979 -3.329852
-1.425666 5.768396 -3.455143
-6.233400 16.314100 -3.359000
4.455200 6.914800 2.465100
4.308549 7.352047 2.161438
4.625900 8.203900 0.718500
-6.438074 14.875356 3.174417
-7.931124 15.384581 3.165196
-6.812800 15.220600 3.566300
-3.585637 5.082904 3.767298
-8.370000 10.460800 2.752800
-5.244576 8.542550 4.169497
3.833754 4.502803 1.386120
-5.187726 15.321688 1.179776
-5.706678 12.972779 4.055383
5.129972 6.013590 3.203062
-9.137200 14.062200 2.016900
0.144000 12.792400 -0.374800
2.463800 12.437800 1.021400
-6.475460 6.730366 3.563024
-3.496525 11.533513 3.766714
-3.760085 11.973858 3.323985
-2.663949 10.394682 3.806310
-8.645500 13.792100 4.333500
1.493914 8.235435 5.082101
-1.898700 10.628000 -2.255600
-3.262114 9.759395 -2.538117
-3.792049 8.580244 -2.422965
-4.742174 6.267098 3.817869
-5.584500 5.337900 -0.239400
5.198500 5.679800 2.935800
-3.338800 8.218900 -2.652400
-0.418611 6.289608 -3.850528
-8.767244 12.806647 2.317292
-9.441236 13.986053 2.300612
4.602000 8.482300 0.718300
-3.248800 5.606500 3.751500
-8.240900 10.731900 2.755900
-5.949300 8.329700 4.369400
-3.939875 8.117132 4.766105
-4.870477 13.629986 3.888592
-5.875973 11.903041 -0.996030
-5.006203 5.033231 2.552312
-1.539400 9.981400 4.436400
-2.393200 18.218185 -2.274662
-2.020069 17.935999 -1.827759
2.429500 12.460700 1.149800
-2.897000 3.809600 -2.975000
-6.623062 5.807823 3.995731
4.021376 8.590310 1.382610
-7.206500 17.338400 -3.853100
-8.774767 14.124127 4.166820
-7.808951 6.669531 1.104833
-7.996251 7.380042 1.139668
4.211200 4.673200 3.080000
4.612143 5.701522 3.391651
-5.836585 16.762735 -4.354242
-6.117095 15.969463 -4.858690
-7.844103 10.837222 3.185497
-5.574000 5.475200 -0.240300
-6.656786 12.874859 -0.783755
-6.440651 12.900951 -1.254312
-7.127107 13.251669 -0.958174
-6.143737 16.068766 -5.113408
-3.222625 8.377224 5.126545
5.461700 6.942600 2.403000
-8.619500 13.908900 0.320200
-8.814435 13.610659 0.055881
-3.813692 8.031485 -2.851013
-0.754541 12.596658 -1.472677
-0.602378 6.382183 -4.350331
-5.954655 16.406364 2.028985
-9.087859 7.403071 1.618420
-3.458395 5.964958 3.455741
-5.772810 8.139811 4.087629
-3.687259 8.037536 3.797224
-6.006726 13.874069 3.458895
-5.746808 6.786521 -1.824502
-2.495900 7.671200 5.037200
2.742340 11.229028 1.531846
-6.538809 6.800525 3.462417
-6.375825 16.492857 -2.449069
-6.394443 15.870255 -2.765655
-6.054471 15.265923 -2.515470
-8.086383 14.127099 4.268836
3.028800 10.340800 3.694700
3.286475 10.369591 3.538627
-8.212271 11.214644 3.741728
-5.682657 4.978668 -0.388076
-4.542315 7.992525 -2.082530
-2.917550 4.582570 -2.576907
-2.873290 8.094939 4.521411
-2.737617 17.837105 -0.673957
-1.313806 12.226919 -1.086287
-6.517322 4.224457 2.126294
-2.473160 8.258573 -2.561370
-3.068900 12.032800 -0.923200
-0.137595 6.469547 -3.414372
3.675576 7.268454 3.782314
3.599820 8.272341 3.665860
-3.016138 5.871737 4.092027
2.757646 12.091189 -0.635779
-5.224193 8.426939 4.583760
-3.541359 8.031425 4.348014
-5.982207 14.019667 3.710348
-5.683221 8.321936 -1.796254
4.907139 8.090888 -0.194815
-7.007390 8.202560 -1.012330
-2.336659 3.104650 3.030820
2.141577 13.013450 1.710940
-6.451638 15.917063 -2.402795
-5.817125 16.660255 -3.638886
-5.713325 15.931701 -2.601769
-8.791973 14.883587 4.326116
0.419300 8.806100 -3.354900
-2.778309 16.592434 -1.144360
-2.678780 16.139046 -0.389731
-9.239600 13.235900 2.022400
-2.490328 7.485994 5.240741
3.142900 10.210700 3.683400
3.655929 4.164900 2.657694
-8.500853 11.023974 3.791058
-8.645224 12.596588 4.031671
-5.679558 5.420788 -0.118676
0.449197 8.235584 4.848543
0.977221 8.327242 5.149935
-5.345022 16.205795 -4.371281
-2.886378 18.229992 -1.423193
-0.587544 3.945729 2.305842
-8.476024 12.668129 5.359033
1.187791 11.840199 -1.467669
1.718322 11.647086 -1.112350
-0.818478 6.445851 -3.105154
-6.635149 15.968469 -2.397199
-7.810372 15.359466 0.922860
-0.253291 3.576195 -0.058350
-3.367580 8.091098 4.095723
-6.106494 14.079596 3.148712
-5.701549 7.085735 -2.154642
-2.860381 10.316147 -1.536083
-2.587108 8.524592 4.965851
-1.096395 3.315222 -1.935018
-1.374520 3.592077 -1.855985
-0.199028 3.744863 -2.055302
-5.455989 4.318350 1.493117
2.531343 12.971364 1.801530
-9.219809 14.687832 1.153991
-9.272904 14.164470 4.122271
-2.798524 11.510283 -2.329229
-3.036600 11.285300 -1.746900
-4.176803 16.293032 1.064321
-4.358422 15.633200 0.682148
-0.223501 9.066393 -3.050346
-0.693313 4.515720 0.857844
-6.560738 17.383724 -4.554804
-1.519965 12.812505 -0.576515
-1.354868 12.667118 -1.165462
1.822800 8.205000 -2.817800
-9.172729 11.687174 4.155661
-6.688009 3.561587 2.913246
-6.883500 9.517400 -1.626600
-2.522800 12.616000 1.350500
-2.251216 12.875263 1.232037
-6.264800 16.783600 -4.658700
3.520234 8.324023 3.393578
-2.865995 11.259028 -1.838952
-0.255146 7.173455 -3.220503
1.408400 12.377600 -0.739300
4.042006 8.930223 3.431739
4.469590 8.871067 -0.255501
-4.627158 8.195168 4.220188
-6.776816 4.242649 2.470677
-6.616200 3.535700 2.884500
-6.200121 13.648895 3.657519
-5.996596 7.991159 -2.333283
-7.648222 11.755480 5.438625
-8.015242 12.986221 5.361491
-0.932279 3.556166 -1.746946
2.448827 5.897719 -2.178382
2.273966 4.850606 -2.338989
4.019722 4.044835 2.126722
4.166388 3.154830 2.788286
2.286000 12.544400 1.667200
-8.049222 14.205552 4.165496
4.261683 8.411415 3.370268
-0.281552 9.177547 -3.333467
0.091769 8.796225 -3.863788
0.038044 3.629195 -1.249495
-2.524048 7.944237 5.596143
-3.150689 7.765420 4.150340
3.991010 8.006419 4.393858
-2.595687 12.043801 -2.238718
2.207239 8.194389 -2.977561
-8.714475 10.895023 3.541771
-7.710004 8.874365 4.220243
-1.639534 3.944250 -0.627016
-2.979590 12.476497 1.499818
-2.452195 12.020847 2.187162
-6.026558 4.348592 4.650590
-5.852779 4.030048 4.259279
-5.994446 3.443210 -0.470741
-3.269929 3.326221 -2.044905
-1.419352 7.006565 -3.884169
2.667485 9.923914 3.941901
3.443534 9.368021 3.672747
1.828477 7.692960 4.747096
0.508295 2.937640 -1.546822
0.889055 3.325252 -1.949660
-4.840537 12.934768 0.923247
-0.155192 8.200305 5.988141
-5.349600 4.782700 4.003000
-5.062251 5.893484 4.178598
-3.848600 8.470200 4.379600
-7.825164 10.070253 4.170336
-7.426065 9.918859 4.004826
-6.180620 13.450933 3.464545
4.910011 4.020542 0.461764
-1.856835 3.433887 -3.375032
2.460848 12.569514 1.066769
-0.847173 17.747322 -2.253193
1.422242 11.018412 -2.011472
4.218000 8.325200 2.935500
-1.961200 3.646700 -2.788500
-3.466694 4.310550 -2.677816
-3.548000 3.659300 -3.031800
-8.710200 11.151600 3.976600
-2.697276 12.853464 2.014553
-2.931414 12.888213 1.673755
5.067600 6.938200 0.244900
5.118353 7.568571 0.107789
-1.811093 3.367079 -2.083199
-1.073382 6.681262 -3.791950
2.014866 10.839552 -2.352312
3.026616 7.610732 4.330675
3.363511 8.303768 4.167525
3.110791 7.425103 4.022281
-5.856287 5.230957 -0.178167
-5.675924 4.937223 -0.960700
-0.477200 3.459500 4.457000
-7.521141 16.690504 -3.088223
-7.598500 16.885099 -2.849500
-0.160211 9.983860 5.085133
-0.050300 9.655600 5.366400
-0.201874 9.285745 5.607463
-3.589020 13.365711 -0.971080
-3.288249 12.729311 -0.000903
-3.688300 12.557800 -0.482100
-3.309269 6.085075 -1.361998
-3.946400 8.140396 4.553804
-2.185185 6.879708 3.658192
-2.814849 7.072440 3.847707
-2.615900 6.632400 4.061100
-2.217960 11.699705 1.326430
-3.804916 4.338977 4.661031
-5.047200 14.167100 1.640300
-8.841256 9.638879 -0.851320
-2.113700 16.676500 -1.845300
-2.386837 16.280691 -1.824737
2.313198 13.095338 2.403908
-9.015400 14.879800 1.216800
-5.347934 3.545122 1.670934
-1.547700 5.452700 5.072400
4.153071 6.761600 0.928487
4.635427 7.811455 -0.179355
4.823601 7.685003 0.629934
-0.282128 3.583576 4.347913
-0.660023 3.455575 4.858932
-0.799363 9.576774 5.126640
-8.376864 10.980836 3.201821
-4.131876 13.627513 1.714693
-9.105556 13.289688 4.363277
-6.468137 6.987369 -0.450010
-6.867513 6.704225 -0.824090
-1.703727 5.368163 5.401960
-1.549800 6.024800 5.246500
2.623752 11.610714 -0.205230
-2.867445 15.715626 -1.711651
-9.883176 12.513864 4.095055
-2.027882 2.996782 -2.425607
1.610332 11.223605 3.696215
-0.953139 7.863543 -3.599011
4.319084 10.939198 -0.906054
-2.011881 10.886379 -0.970635
-1.858811 12.402699 -1.857678
-2.137893 3.924950 -1.897362
-1.014301 4.116509 4.981903
-4.088200 12.870800 1.072900
2.860460 11.128419 -1.502197
2.677200 10.764400 -1.404100
-5.510618 12.638205 2.449478
-5.135242 14.729445 3.049351
-4.758113 13.148892 2.065125
-7.652478 15.007514 -0.213273
-3.849200 8.749500 4.371100
-9.111348 12.927224 4.301980
-1.504992 12.990051 0.935445
-1.836030 12.807739 0.296262
-2.509865 9.256258 3.902198
-2.617600 9.314800 4.546200
-3.043555 8.816345 4.507270
5.099833 8.800476 1.165235
-8.024652 9.189711 -0.642963
0.030414 12.239171 -0.598275
-2.743971 16.025566 -2.591568
2.020226 12.403526 1.343168
2.966985 5.663381 -1.595487
-6.474844 3.021155 1.770286
2.177690 11.712711 0.030146
4.428002 11.976603 0.705308
-1.657542 5.145785 4.682764
-7.299100 13.988800 -0.698800
-0.924200 4.078700 4.955300
-1.164094 3.472779 4.563421
-0.549700 6.753300 5.619600
-8.887001 13.598899 3.775821
3.508920 8.376913 2.676006
-9.030547 10.765252 4.246678
-4.518395 13.219286 3.066331
-3.194760 16.890882 -0.819884
-7.202652 6.311883 0.008975
-5.305070 13.840094 -0.800259
2.434600 10.212300 4.240300
-2.264100 9.614200 -2.594400
-2.485198 3.386258 -1.542402
-3.834993 5.812301 4.158429
-4.366813 11.869547 -1.847998
-0.429603 8.525484 -3.510917
5.270029 7.293548 0.502373
4.934014 7.006575 0.653334
-1.728853 3.841871 2.088080
-6.041717 15.783797 -0.990719
-0.549300 8.841700 5.703900
-0.510702 10.049504 5.149932
-8.835464 14.344874 4.072583
-3.967296 2.840288 4.888536
-3.019695 4.114748 4.117181
-7.122550 15.970834 1.494725
-7.395922 15.849534 0.786349
-6.956061 15.483611 0.934783
-2.611500 15.814500 -0.104500
-3.729626 9.568496 4.573139
-7.349467 9.777717 3.826436
2.977547 4.087353 -1.063262
-2.716300 12.516600 1.721800
-2.551467 12.507236 1.317212
-5.274499 5.810189 2.281865
-5.935500 4.105300 1.795500
-5.474043 4.275923 1.342518
-1.374701 8.653272 6.158608
-7.879466 9.630189 0.109997
0.754796 12.752574 0.183706
-2.339163 16.958986 -1.955541
2.119200 12.581000 2.175500
5.731566 6.433920 0.706219
2.449037 6.507984 -3.033963
2.569626 11.597582 0.593249
-1.428568 5.728206 5.203557
-1.007512 3.857177 5.099839
-6.374160 14.810857 -0.578998
-0.575499 4.591230 5.690701
-0.944231 5.264746 5.023474
2.676000 3.658200 0.002400
-8.808000 11.351100 4.329300
-1.623339 3.523137 1.023672
3.363600 7.255800 -1.683200
-4.815380 5.322033 3.201854
4.371216 7.405615 1.257618
4.205090 7.642105 0.668853
0.678788 3.842453 3.223224
-2.346740 3.348984 -2.140948
-5.961905 14.776960 0.094400
-4.466500 11.793900 -1.476600
-0.947387 7.269426 -3.446247
5.331181 7.049630 0.695002
4.636500 7.031900 0.350600
-8.961200 9.024100 1.544800
4.236657 9.060581 0.712002
-1.165586 12.398402 0.087674
-4.430704 9.070455 4.074680
5.729637 4.251154 1.382949
4.411056 4.514996 2.435093
3.453675 4.334104 -0.289701
-2.021196 12.515793 2.236714
-3.412761 12.653046 2.424693
-5.398311 6.763936 3.145921
-6.287874 16.090559 -2.254627
3.582532 7.049207 5.530061
-8.328008 9.804152 -0.866305
-1.899036 16.670897 -2.862339
0.903745 9.511356 -3.000026
0.377026 9.081176 -3.754794
-5.795142 4.267760 2.394853
-5.961304 4.899839 2.758374
2.873692 11.716403 0.433101
-2.748966 5.630369 5.483943
-0.758547 3.615039 -0.960160
-0.572382 3.770157 -0.945277
-8.657753 14.469930 3.837323
3.533604 10.098882 3.301629
-1.558627 16.064417 -2.042195
-2.336423 16.392145 -1.641266
-1.612476 16.679020 -1.754221
-0.492000 3.620400 4.845300
-0.328545 4.138454 4.017880
-7.684626 8.728356 1.866274
-9.350768 8.249122 1.223702
-4.809467 15.434677 0.841411
-4.177843 15.429373 0.599226
-1.935750 3.418889 -2.708896
-4.064803 12.151858 -1.913755
-0.978200 7.844600 -3.777800
-5.834599 15.179446 2.966410
-6.011870 15.751487 3.148478
-7.085600 17.777901 -4.813500
-2.822700 16.244301 -0.411200
-2.934962 16.840219 -0.307787
-3.440866 8.918106 4.176934
-2.727663 11.929583 2.163208
-2.767900 12.390000 1.999200
2.407696 5.323343 -2.138932
3.472274 5.696201 -1.842334
1.911706 5.814771 4.957516
-7.479333 9.399437 -0.595433
-1.963106 16.850275 -1.658668
-1.723196 18.505369 -2.442512
-7.159625 16.662210 -3.726305
3.536718 11.353425 0.305085
-0.410163 7.484018 -3.000834
-3.128795 4.160918 3.599652
4.485864 8.387238 1.766489
-8.535350 14.635381 3.561880
-2.668863 9.082907 -3.742088
-2.132300 9.274400 -3.446600
-7.270033 18.064699 -5.069345
-7.059134 18.593786 -5.086995
1.943127 5.301811 4.278469
-4.065706 12.550640 2.782585
-2.656012 15.700359 -0.982437
-7.510438 9.531414 3.953624
-2.047900 8.145800 5.665600
5.052371 8.591358 1.096427
4.872305 8.768486 0.642717
-4.039112 12.103649 -0.705459
-1.014159 7.602759 -3.644506
-4.131473 15.162924 -0.136876
0.657800 3.451100 2.175500
-0.950600 5.907900 5.484200
-5.761872 14.285916 3.666559
-4.178167 9.454769 4.072375
-6.963410 14.677087 -2.910610
-9.032293 14.004932 2.427139
-8.499753 11.424365 1.885474
-8.562924 11.371980 1.928178
-8.226064 9.956718 -1.067956
-2.281512 17.805210 -2.282054
0.850805 12.811832 3.465816
-5.396998 4.788997 2.604408
3.380081 10.945427 0.975202
-0.519115 7.602450 -4.260219
-8.322343 15.557304 2.990327
-5.965752 15.546204 2.523158
-5.766300 15.527800 1.877200
-4.733000 13.480700 1.201300
-4.947931 4.739326 4.217515
-7.293670 8.607696 -2.360330
-4.392447 12.168426 -2.343817
-1.409992 7.775378 -3.399355
-6.982017 15.731102 -0.360182
-7.811282 15.300076 -0.753107
-9.722852 13.626862 2.190038
-0.928439 10.614512 4.479975
-4.129665 4.546218 -0.829841
-4.196853 5.096334 -1.168380
-3.247976 3.199321 4.694366
3.051325 5.848015 3.338205
-6.972729 17.445869 -5.665277
-3.385807 9.499364 3.647567
-8.970300 11.387400 2.290600
-4.777039 4.777318 5.038872
-4.542905 4.457421 4.122272
-7.905839 9.709965 -0.594363
-2.118900 17.566099 -2.201100
2.283401 4.254238 3.929766
1.188672 12.805375 2.596792
-5.778318 4.803753 2.668169
0.534900 13.171100 1.165800
0.952284 13.245046 1.140364
-6.637908 17.674221 -5.381769
3.151700 11.842400 0.850400
2.165446 5.618863 -1.764557
2.321071 3.490575 3.629417
0.087231 8.053758 -3.454527
-8.400895 7.524384 2.208343
-8.241448 8.007181 1.800443
-8.457800 14.867200 3.411500
3.774400 11.014100 0.501600
-1.751113 12.560626 2.612805
-4.908617 5.207877 3.442700
-4.282521 5.589290 3.460334
-4.548000 11.226500 -1.677800
-8.082219 14.971655 3.398189
-8.797065 15.033284 2.921932
-8.085800 15.153000 3.280500
2.428271 11.536862 -1.049857
1.337044 11.519060 4.264709
-9.512321 13.700908 2.531900
-9.764420 13.634166 2.002796
-4.757581 4.787245 -2.110717
-4.060582 17.488420 -1.260696
3.958460 6.431583 3.783709
3.576851 7.009538 3.831556
-3.892266 9.569704 4.128521
-7.301708 11.793006 4.515221
-0.903957 4.078153 4.859046
-1.824656 12.666262 2.207598
-9.214514 10.712182 2.782785
-2.148675 15.788103 -0.533178
-8.616663 10.086024 -0.883100
-7.644722 14.260042 -2.022720
-7.047413 15.073201 -2.792254
-7.801412 14.848940 -2.381497
-1.936514 17.893932 -2.091566
1.493756 6.099470 4.611406
-5.066678 5.050035 2.234459
-4.791271 5.605195 2.286972
1.044937 13.765540 1.509916
-8.499810 12.989972 0.679379
2.877424 11.974767 1.033121
-0.149800 8.289800 5.749500
0.076664 7.937204 -3.185638
3.415400 5.488600 3.514000
3.749961 5.735545 3.787788
3.326683 6.028830 3.970895
-7.964447 15.856599 3.674388
2.039229 4.681256 3.666029
2.900889 5.021344 2.928761
-8.306882 12.354435 4.750570
-2.072800 16.829800 -1.261500
-9.124064 12.847526 3.736299
1.044500 4.881600 4.870800
4.576500 7.919800 0.319600
0.056485 12.572854 2.225781
-2.014500 16.681601 -1.178100
-3.145493 12.271854 1.625284
-3.094097 13.310380 2.144228
-1.734569 17.099445 -0.946955
-4.004204 4.190691 -1.530037
-3.098500 3.819200 3.239000
-6.274456 3.893266 0.174199
-6.713715 4.801853 0.602383
-0.231400 12.977800 0.034500
-9.036300 11.521000 2.529300
4.678885 5.653418 3.261235
-4.864551 16.150053 -0.426039
4.137180 4.628857 3.605325
4.405443 4.867572 2.639136
4.210661 5.133134 3.001815
-5.038415 4.648285 2.260681
3.202158 12.378683 0.993226
0.756773 4.027698 5.169535
-0.277400 7.978000 -3.655400
-7.562100 16.672899 -2.337800
-7.936294 6.956089 2.549590
-2.190800 5.810800 4.511600
-2.661642 18.862309 -0.875822
-2.728000 18.191700 -1.210600
-0.238087 13.238469 1.183444
4.551900 8.477900 0.419300
-8.615774 8.111423 0.655347
-2.356443 6.324976 4.172391
-4.267096 2.608912 0.516812
2.043495 9.686343 4.454028
4.154582 5.636070 4.141356
-3.723794 12.846992 0.891922
-1.961271 9.255537 4.897283
-4.753968 5.261994 -1.514513
-2.810957 6.646109 4.052862
3.310118 7.074086 4.770044
3.098638 6.319150 4.423417
2.911000 7.131400 4.206800
-6.648975 3.975593 0.589326
4.719909 5.516692 3.726632
2.408614 6.804410 4.153060
-0.202400 12.683200 3.054500
-3.875643 4.277821 -2.161656
-4.788478 13.230609 2.190216
-4.727200 3.507300 4.383200
-4.878390 4.156553 3.269677
-1.443463 7.357296 -4.498308
3.607023 12.011808 1.259848
-0.310935 7.319328 5.891569
0.202625 7.802523 6.589757
-0.046220 7.568110 -3.685970
5.294150 8.931410 1.374274
5.126045 8.150757 1.412600
-6.037336 12.349830 -0.844206
3.974835 7.333983 3.334207
-8.022041 7.380218 3.287242
-2.404023 3.910992 4.505697
3.530000 7.275200 3.873300
3.526182 7.199607 4.459107
0.170079 13.014702 1.196170
-7.288202 16.930298 -2.671885
-7.006805 17.314144 -3.263690
-2.464100 3.826400 -0.251900
4.471866 4.914006 -0.995921
-2.070864 10.923423 -1.110397
-3.991457 3.287701 -0.070043
-2.363616 3.598836 -1.662852
5.455400 4.786000 1.120100
-2.376635 9.246587 5.193187
-2.033200 9.463800 5.087700
-1.437977 9.528207 4.593069
-4.373249 10.778719 -1.848057
-7.452313 13.632012 -0.497472
-8.036777 15.587870 3.750550
-6.994600 15.167700 3.651300
-6.619663 14.636429 3.950117
-3.971800 6.956300 -1.629200
-3.965447 6.585362 -1.149913
-2.004464 17.287462 -0.913134
-7.282517 4.905133 0.310152
-6.829400 6.404000 -0.150300
4.294200 4.673900 3.022400
-2.348630 7.529411 5.532339
5.435796 7.020788 0.407478
-3.893129 7.767453 -1.746269
-4.952190 5.146702 2.729592
-5.036151 4.702038 2.515926
-1.615633 7.152917 -3.619822
2.088310 12.290867 2.233146
-3.325766 11.169544 -1.333809
-2.849500 11.135900 -1.788900
-2.998512 11.141751 -2.419301
1.020091 6.800121 4.595836
-0.518617 7.610405 -3.189021
-1.385146 17.742527 -2.365931
-2.267939 6.666550 4.564783
-1.896590 6.402257 4.046278
-1.915797 9.911864 4.192809
2.679600 11.138500 3.540300
2.734151 11.209289 3.274194
2.450771 11.170030 4.435669
-7.697250 7.891541 2.986584
-2.207600 6.667600 4.781500
-7.408928 16.861488 -2.181580
4.754314 4.771815 -0.922256
-7.210586 9.975690 4.388150
-3.019392 12.389978 -0.360911
-9.420815 12.086155 2.628012
-9.552453 11.872982 2.303184
-4.364700 3.380700 0.674500
-1.375732 17.551888 -2.480633
-1.279322 17.960922 -2.061271
-4.325455 12.688819 2.192575
-8.691243 11.389002 0.070333
-7.494438 16.855755 -3.632365
-3.152127 8.653158 4.220422
-6.461500 4.578900 0.269700
0.075486 4.190004 0.409528
4.649100 6.247800 2.996900
1.683467 4.235279 -0.587835
-2.855623 16.385265 -1.583539
-1.538419 13.009811 1.057560
-0.917793 7.153439 -3.627241
3.338760 11.851277 1.283443
2.455376 10.860750 -1.753212
-1.051072 7.740449 -3.650423
-2.292181 10.547402 4.048487
-2.162600 3.418300 -2.048400
2.359296 6.065699 3.929633
2.446222 6.297451 4.445835
-7.723343 7.528325 3.309002
-0.324900 3.891500 -0.064800
-2.438980 18.664894 -1.263686
2.455746 9.318260 5.407704
1.052220 9.096077 5.343075
0.864347 11.306880 -1.958169
5.224775 5.887848 -0.444976
-4.359979 12.571134 0.592194
-2.952742 17.660276 -1.156938
-3.906319 3.620764 0.200230
2.369000 10.485000 -1.704000
2.628294 10.640284 -1.199322
-3.888265 9.527041 -1.867725
0.754426 7.234084 6.008152
3.651240 8.733059 4.512220
-5.461054 4.800578 0.457811
2.079065 11.447016 4.858492
-2.992459 12.350658 -0.230639
-2.979023 12.376118 -0.407400
-8.023276 15.003260 2.553301
4.422538 7.631044 1.375533
4.640800 8.065800 1.017900
-1.859600 11.818100 -1.311700
-2.039170 7.307009 -3.202003
-8.323383 8.402347 2.198591
3.382384 11.560317 1.725702
1.304340 3.544111 4.384663
-0.282000 8.544600 -3.701600
-6.437813 6.915480 3.399008
-1.799974 10.742982 3.546485
1.050082 3.675195 -2.444553
0.921016 4.347073 -1.489912
-8.056179 10.909275 -0.340939
-7.622486 7.170292 1.533483
-7.457668 7.226409 3.111595
3.606400 8.619300 3.816600
3.695277 5.018028 3.231234
4.549700 8.618400 0.419400
5.166436 5.721644 -0.619386
2.640200 5.919800 -2.282000
-4.384600 3.593500 0.839600
-8.710900 10.635700 1.535800
-1.245915 16.035837 -1.745688
0.926948 7.529680 5.191724
1.177985 7.517859 5.432592
-4.784745 13.715312 2.574628
-3.118726 6.253121 3.854742
-5.018909 4.879934 0.530234
-6.212538 8.054939 4.984845
-9.401309 9.026871 0.877247
5.663385 7.139229 0.775056
5.742726 6.711772 1.154237
-6.620626 15.862158 -0.813640
-6.653985 16.061806 -0.792438
-6.554289 15.175631 -0.232015
0.342562 11.463720 -2.025659
-0.955651 7.302578 -3.977675
2.451445 12.410663 1.404103
-0.282100 8.680700 -3.639400
-2.149500 10.716000 4.183700
4.296903 9.229243 -0.631136
-4.342570 9.478282 -2.017315
-7.286325 6.185993 1.565019
-1.417608 8.991276 4.730498
-0.858683 16.203888 -2.265203
0.423409 10.932014 4.385084
-1.453908 16.138632 -1.386274
3.566639 8.701632 -1.231776
2.961802 9.399524 -1.212367
4.223244 5.656626 -0.309677
-2.118483 17.874397 -1.473945
-4.984295 3.505389 2.636558
1.120628 4.651692 4.094977
0.701175 3.929167 5.377022
0.744416 3.848926 4.426290
-9.659951 11.463114 3.173241
0.836188 11.341524 -2.385213
0.346125 11.180470 -2.133572
-5.237813 7.143682 3.710160
-2.757650 15.899111 -0.139274
-5.237424 5.226918 0.649130
-5.449848 8.365358 4.865537
0.189524 3.772776 4.450067
-0.373200 3.464200 4.474400
0.415718 9.088734 4.678050
-7.807121 7.438529 2.031977
-8.401580 7.185253 1.943875
-8.594212 7.712211 1.902369
5.225500 6.110400 -0.320900
-1.397606 6.975037 -4.037097
-3.643016 6.603715 -1.718516
-5.052124 3.000828 2.846572
3.058613 12.052912 2.068934
0.780372 12.742482 3.015331
0.631192 11.752328 3.411441
0.574723 12.058184 -1.481536
0.358057 9.149114 -3.674672
-1.915422 10.761951 4.288794
-3.797835 16.586775 -0.735189
-7.986988 7.103531 1.983502
-7.696400 6.864700 1.025200
1.337800 5.628300 5.083000
-3.681185 8.593959 -2.251228
-7.914315 17.307837 -3.564106
-5.826196 16.226788 -1.885041
-6.633162 15.596579 -2.689224
-4.810418 4.154974 3.246986
-3.261578 9.351385 -2.476995
-8.655100 15.292700 1.447500
-3.103791 15.534490 -1.762994
-2.468997 12.138439 0.026264
-2.845229 12.403197 -0.049903
1.113000 10.726900 -1.951100
-5.890456 16.145945 1.983299
-6.122778 15.797703 1.857542
-3.023526 5.757690 3.719789
2.074894 6.879870 5.478417
-6.262449 5.272854 0.555073
-6.241973 9.163178 4.177780
-1.383325 3.589105 2.908874
5.461278 4.196383 2.239743
5.400996 5.179014 1.268108
0.351400 6.615600 5.627700
-2.945530 12.567314 -0.809210
-4.507324 5.965580 3.571227
-3.914867 6.477859 3.637809
-1.244656 11.865627 -2.147253
-2.113155 7.666863 -3.571851
-6.403431 15.155014 -1.462617
-5.726893 14.919101 -1.794496
2.853600 12.075500 2.021500
-1.674600 10.853800 -2.094400
-1.773200 10.868900 -2.110700
-1.767400 10.982600 -2.031500
-6.567934 15.110494 1.425281
-5.879441 15.967867 0.947965
-1.965717 11.315957 4.172595
2.270778 4.633626 3.766076
-3.148808 12.618214 -0.018676
-7.311407 7.142931 2.278612
-8.244339 6.897617 0.643845
-8.029400 7.327900 0.250400
-4.276088 13.446935 1.101094
2.148700 8.925200 4.866800
3.493993 8.383530 2.953413
3.922600 8.743300 3.393600
-1.192171 11.664711 -2.008137
-1.306788 11.502053 -1.989524
-1.425891 11.082142 -1.656965
4.232720 8.221227 -1.199090
-5.043869 4.241196 3.143183
-2.512848 9.183448 -2.654429
0.801655 9.651184 -3.292934
-0.064185 9.441978 -4.030998
-6.532174 15.675517 0.815353
3.590653 9.339739 3.742053
3.895236 3.747094 1.609604
-4.142398 12.988234 1.579891
-4.764406 12.784590 1.556796
-1.552465 12.209081 3.399810
-5.159155 4.680809 2.550835
-5.536958 4.779064 1.501624
-5.668957 4.679457 0.074015
-5.949600 9.185800 4.538500
5.590902 4.304153 1.819396
-1.189555 10.279213 3.945466
-5.682600 13.957100 3.189300
-8.962639 12.058847 0.856147
1.562485 3.673295 2.763584
2.086844 3.382755 2.553518
2.426932 4.086786 2.885651
-4.750758 13.792414 2.629835
-0.961600 11.913200 -1.423600
-1.989464 7.757780 -3.283617
-3.103900 8.921800 -2.566300
1.260262 10.689751 3.869619
4.625156 6.292938 0.050355
-2.663643 11.093422 4.198234
-7.829093 7.224415 1.294056
2.694690 7.806344 3.489683
-9.053507 8.778305 0.382158
-5.894288 4.098713 -0.787786
-6.224765 3.861775 -0.696868
2.149200 9.064200 4.823600
-8.068954 8.939137 3.698347
1.629300 3.489100 3.063500
1.494661 3.832385 3.493677
1.377737 3.282038 2.375426
4.495896 8.139912 3.943451
3.598431 8.705241 4.122142
-1.874981 9.704893 -2.197532
-2.262733 10.723763 -2.870477
-5.345264 3.476779 3.358906
3.468434 9.720786 -0.350957
2.981700 5.210500 3.761900
3.694924 5.537069 3.468136
3.021800 5.355300 3.823500
-8.258064 15.680001 2.861087
-2.560300 8.379500 5.222100
-9.004472 13.579832 1.254479
-8.989800 13.226200 0.523900
-5.705618 5.395100 0.084916
-5.368455 8.643787 5.165610
-6.539860 14.622843 -2.359252
4.813114 4.379194 1.703479
-7.531563 8.469440 3.763480
-7.401779 8.545635 3.562199
-6.219600 15.499300 2.732000
-5.710900 14.099400 3.145900
-0.424266 12.335423 3.332894
4.129866 8.270146 3.826493
-1.578500 7.847900 -3.856700
-8.830700 9.823900 0.641900
1.136737 13.057023 -1.372814
-4.016680 5.154668 -0.574497
-5.625403 17.084269 -3.267231
-8.402400 15.193200 0.658000
-4.766200 13.557200 1.240000
0.921584 13.131623 -0.912642
0.897202 12.671204 -0.356533
-7.762400 7.031400 2.106900
-2.455797 8.342925 4.243853
1.100150 10.950370 3.498439
-0.249900 9.655200 5.366000
1.862592 3.156136 3.343220
-6.693823 17.562422 -4.744460
-7.156949 17.632166 -4.749721
-2.187700 10.584900 -2.246300
-9.006064 10.196068 0.416102
-2.843133 9.030498 -2.504371
3.981173 10.233088 2.831034
0.653503 12.832540 3.103995
-0.858119 17.461264 -2.981937
1.234535 12.533163 -0.241635
-4.199000 12.706100 1.774400
-6.280114 5.278828 -0.118714
-5.711412 9.570882 4.869445
5.821612 5.816632 2.107559
-7.887102 14.758886 4.420807
-8.201584 14.675462 4.145156
-5.987602 13.740707 2.738373
0.898506 13.371399 1.167198
-9.900913 12.117717 1.499037
-1.577300 7.991600 -3.891600
-0.458000 3.477500 -2.405200
-0.947758 3.161209 -2.568871
4.141705 5.718311 2.822951
-5.714201 2.678671 2.011549
-6.318308 17.502737 -6.165813
2.723926 10.853736 3.086408
-8.343101 7.590761 2.283182
-3.765960 6.635812 -1.233785
-4.766994 6.809088 -1.434651
-2.005032 12.886420 2.024495
-6.976035 6.876841 0.098654
1.615085 3.022652 4.235129
-5.592176 16.641470 0.765907
-4.936687 16.071106 0.765570
-0.430376 17.799368 -1.456395
5.211575 5.622360 1.105933
0.765785 11.934972 3.446259
0.862447 11.939489 4.618762
1.169220 12.718357 4.491859
0.743942 12.152018 -0.976716
1.045100 12.296100 -1.050700
1.512598 12.148855 -1.343931
5.078101 5.153836 3.009631
-7.569958 17.194403 -3.139718
3.879619 8.038743 0.895631
-3.835954 13.071067 -0.432205
-7.659183 7.814471 -0.160900
-4.101200 12.688500 1.809300
-5.709000 5.627800 0.261700
-5.984811 9.994663 4.669671
-4.441209 5.412866 -0.837645
5.481586 4.855445 2.032664
-5.752182 14.568706 3.286106
3.260100 10.080100 3.676800
-1.580100 8.136200 -3.939800
2.761520 12.199201 2.381429
-5.659091 14.516977 -0.770093
-5.797000 3.397200 2.331000
5.730633 6.576946 0.434237
5.191246 7.250784 0.285910
-7.333402 6.632994 2.325276
-5.928850 2.879911 -1.222355
2.375829 9.597565 3.895601
-8.828300 11.438300 4.431900
-8.385600 13.934500 4.495500
-6.801676 6.610741 -0.365038
1.418700 3.471500 3.577900
2.152370 3.501429 2.903908
2.804128 9.655939 -1.859265
3.357881 10.198498 -1.776158
-7.842284 13.128132 -0.181027
-8.769446 14.105330 -0.034166
-4.932536 15.258412 -0.435677
-1.655861 9.670974 4.436785
-2.570684 12.455786 -0.696293
-6.982421 6.511006 0.579157
-5.949500 9.734700 4.322600
-1.514110 13.130431 1.114682
-6.134128 14.515272 3.483174
-8.510400 14.322400 0.618600
3.160630 4.567392 -0.065296
-4.313908 10.880732 -1.085439
-3.728709 10.646173 -1.605400
-4.732383 4.250796 -0.564928
-2.195400 12.080400 -0.985000
-2.583280 11.707911 -2.137375
-2.266768 8.204060 -3.879751
2.298355 12.845522 2.683029
-0.952400 4.310500 4.940200
-1.101018 3.966602 4.590480
-2.144872 15.591225 0.192721
-5.856900 3.407500 2.485700
-3.511717 12.750015 2.575108
-3.300400 12.237700 2.548200
-3.229200 12.283200 2.425600
-3.203000 17.124901 -0.429300
-3.716400 3.426400 2.918700
-8.218389 6.844047 2.064816
-5.478500 3.393500 -1.200600
-4.481594 14.315429 -0.247477
-7.549800 13.448000 5.130700
-2.391528 16.334707 -0.593632
-3.985046 11.072855 -2.475448
-7.677200 7.161800 -0.247100
-6.742260 10.902223 3.508629
1.451707 3.639001 3.553667
1.438493 3.364187 3.544189
3.647285 6.645899 -1.054518
-3.033761 3.760772 -2.138776
-1.728058 2.497682 -2.449831
-2.748282 3.613751 -2.500879
-3.939721 2.753009 3.076019
-3.085652 11.362397 2.801567
-3.525662 11.860313 2.700232
-3.882753 11.492677 2.905551
-2.897800 17.421600 -0.689300
-2.542114 18.087141 -0.170458
-1.897081 17.211731 -0.155316
5.015940 7.074737 1.626253
3.757005 4.364826 2.873237
-6.506553 16.455038 -5.336199
-6.527991 16.243242 -5.868006
-3.432238 12.575191 0.580602
0.179534 6.358386 5.822004
-8.354774 12.838167 -0.237920
-5.629606 9.635172 4.200516
-4.742356 9.112338 -1.855380
-4.240279 9.123955 -2.632607
-4.489150 8.438130 -2.062883
-6.962910 7.683142 -0.971756
-7.269500 7.919700 -1.394100
-1.917979 12.652734 0.902077
-6.439827 14.655402 3.446298
3.707568 3.770333 -0.666600
-0.834517 8.801507 -3.704429
1.942300 12.507900 2.539700
-0.764765 4.835881 5.555687
-6.566484 3.357177 2.913019
-1.402240 6.044828 4.802890
-1.591329 6.117983 5.349107
-2.682615 17.253441 -0.028507
-8.203992 6.589226 3.183159
1.539604 5.979524 5.086870
1.530008 6.522463 5.121135
0.931057 9.439010 5.431231
-4.386900 10.423900 -2.093400
-3.868613 10.250525 -2.094707
-3.008633 4.402672 -2.469451
-7.379135 7.478294 -0.947279
-7.150900 10.549400 3.757000
0.739282 3.463228 3.700397
1.353717 3.951038 4.173243
2.501400 4.496100 -1.268500
-1.632027 17.024527 -2.431395
2.867452 10.522663 -0.691423
3.853168 11.828876 -0.297094
-2.500319 4.053092 -2.130967
-0.562002 3.954833 2.070378
-5.151400 5.028900 2.162700
2.440128 8.527040 4.182802
-8.647168 8.407078 1.082623
-8.315225 8.798650 1.687038
-5.750260 10.571505 4.834756
-2.442520 3.830923 0.298745
-6.319612 15.789971 -0.811372
-5.059234 15.005209 3.610364
3.422245 4.896991 -0.053506
-1.280638 7.651140 -4.380714
2.152936 12.256589 1.965785
-6.713408 4.147480 2.745435
-4.532072 13.091460 1.036658
-6.658017 16.174284 -5.707714
-7.344344 7.853582 2.432043
0.261966 10.435088 -2.483986
-9.319587 10.253659 2.321574
-3.951925 11.084455 -1.958444
0.467533 3.804193 -1.705173
1.267800 13.003600 1.861700
1.457948 13.141078 2.371394
1.275150 13.026533 1.392146
-7.857099 7.219712 -0.077972
-7.432858 10.745538 4.085893
0.954003 3.351043 5.393088
1.108400 3.457200 4.067600
0.937397 11.066400 -1.848306
-2.745219 4.367449 -1.322853
-7.304029 14.741289 -2.926846
-1.297527 8.313490 -2.956990
-4.078900 8.409300 -2.124800
3.255489 9.921394 -1.645014
-6.082786 10.355173 4.572567
-0.682099 3.582582 1.668977
-1.351032 3.889103 2.055597
-7.407500 7.913200 3.705600
-7.480900 7.909400 3.638200
3.736786 4.898512 -0.311373
-9.601133 14.205530 3.600282
0.836978 11.578870 -1.305028
0.523219 11.968946 -1.796189
1.687938 12.181888 2.349401
-6.424932 3.687903 2.465736
-1.391151 6.226198 5.147238
-8.645910 7.291566 2.495703
1.454376 9.821483 -3.199047
1.106576 8.919248 -2.759979
4.051492 9.338972 2.951009
3.472077 9.719849 3.744226
0.446023 10.263574 4.616112
0.292331 10.399940 4.092056
3.321247 10.947855 -0.184823
-5.257700 5.302600 -0.686600
-7.794677 7.896857 -0.500572
1.261927 3.561477 4.716678
1.246790 3.110158 3.753381
-7.968909 13.674813 0.066264
-4.365943 6.235034 3.573563
-4.894243 5.318361 4.362290
-2.609100 3.862700 -1.240600
-7.581515 14.801154 -2.786510
-1.340180 7.898991 -3.709124
2.377074 5.043736 -2.187863
1.911872 12.167303 -0.512989
5.770400 7.037800 0.716200
5.960366 6.829555 0.573030
-0.260721 5.660395 4.953044
2.485345 4.787535 3.666921
2.379577 4.604999 4.631564
-3.561160 3.875278 -2.599484
-5.670185 10.568726 3.772889
-2.552186 4.177886 -0.599704
-3.025054 3.762585 -0.798996
-4.021289 9.779862 -1.952147
-2.984400 9.725300 -2.357200
-3.772812 10.405285 4.336658
-6.304468 14.419751 3.482725
-5.871599 14.703318 3.132796
-2.360423 3.295790 4.668262
-2.802237 2.933711 4.424988
1.265998 12.494535 2.843789
-0.271933 9.609658 -2.883886
3.016482 7.443168 -1.565051
-5.744128 2.955115 3.055333
3.738419 11.068980 0.702412
-1.065148 7.645950 4.989449
-0.115900 11.911000 -1.426700
-7.921100 7.601300 2.812800
3.441000 6.331700 3.912500
-4.044773 12.693535 0.705227
1.749600 11.676800 3.611700
1.502039 9.708791 4.760051
-5.972666 4.124702 3.925392
-7.259237 6.872773 4.030766
-5.219494 15.285307 2.306530
-5.404691 14.968687 2.735446
-8.277310 8.135322 0.079603
1.023576 3.606673 4.286884
0.461547 3.542280 4.226467
-5.108626 5.250236 3.172519
-4.764727 6.298661 3.988639
-1.924000 3.871100 -1.297900
-3.040806 3.400589 -1.133198
4.559816 5.272503 2.629144
4.432700 5.113300 3.226100
-3.708820 16.412230 -1.186495
-3.918900 16.816601 -1.214000
3.023147 7.858243 -1.860520
3.937747 8.024279 -1.626969
3.627676 7.018910 -1.818958
1.494092 7.629329 4.662692
1.374403 8.430077 5.000012
-5.915406 9.912618 4.510945
-1.673871 3.562434 3.570479
-1.556543 4.600564 3.466656
-3.479145 7.503997 -2.081743
-3.764002 10.850461 4.358417
0.526454 12.242538 2.646800
1.762818 6.467605 5.029164
1.592874 5.931585 5.753109
1.389300 6.310000 5.164700
3.043200 9.026300 -1.957000
3.132200 8.995100 -1.922800
3.233366 9.538451 -1.670028
-7.269912 16.740530 -3.358259
-7.655130 17.920254 -2.461180
-9.374747 13.296540 3.393502
-8.824945 12.707084 3.345982
-5.669756 4.509896 3.694287
3.725400 11.104600 0.772100
-1.801460 6.137625 4.975536
-2.414633 11.344657 -1.896047
-2.195806 10.741271 -1.715376
-8.358612 8.145592 3.123761
3.891571 5.049377 3.142424
3.404023 8.253887 -1.952608
-8.476254 7.416905 -0.773323
1.018524 3.828720 4.601965
0.969200 3.570900 4.476900
-3.931026 4.855669 4.630594
-2.518314 3.593028 -1.083552
-8.895864 12.268563 2.221800
-0.341500 12.969900 0.044900
-5.891220 15.001812 -2.658793
-6.484930 9.840693 5.242741
-6.804922 11.849874 5.526162
-6.922500 12.425800 5.265800
0.118163 13.339039 1.822914
-2.406673 18.194794 -1.686278
1.731330 11.276836 2.797495
1.675550 5.640544 4.877892
3.680400 9.420000 -1.169000
3.696642 7.115688 -2.185257
2.563265 6.570473 -2.348784
-6.673095 3.446002 3.315759
4.319032 11.317608 0.631925
-1.258342 6.619975 5.051583
-8.108088 8.009769 2.933972
-0.324400 11.112863 -2.688576
-6.492800 10.533400 -1.562400
-8.313304 14.795282 -1.832518
-7.733215 8.432239 -0.619217
-0.369249 13.128281 1.625076
4.761895 6.262717 -0.148443
-3.553379 12.192536 -1.571628
-3.470300 12.273100 -0.776700
-2.068869 4.000559 -0.611387
0.820670 12.361742 -0.537551
-3.322201 5.570160 -0.842327
-2.952936 5.673512 -1.758032
-5.253502 13.513186 0.285752
-4.960354 13.019736 0.101244
5.325691 5.500835 3.388761
-6.180831 10.675241 4.179334
4.476843 6.908361 0.746072
-4.602000 3.770800 4.511000
-2.750015 12.170723 -0.691972
-6.260500 15.842500 -1.858500
-6.760136 15.814728 -1.205122
1.234997 12.168125 3.139304
-2.090019 16.713011 -1.341449
-7.190357 15.327357 -2.290713
0.587004 12.833707 1.331937
-7.222471 3.915937 3.254888
3.638950 11.067187 0.473796
-1.548904 7.221084 5.777798
0.688464 11.093423 -1.932182
3.913203 7.789778 3.451229
2.383093 6.078898 -2.733816
-4.560266 7.965001 -1.615528
-9.022433 7.979157 -0.072010
1.480026 12.571135 -0.041562
2.020407 12.813286 1.433695
1.490101 12.860408 0.463456
-4.299680 8.237906 -2.083016
2.329924 3.656888 1.777034
1.957700 3.473900 2.238000
4.097832 8.265033 -1.805593
4.067500 8.018800 -0.878600
-1.979511 6.229665 4.771353
-3.290412 4.781797 -0.550884
-7.605367 14.227871 -1.052857
-2.604700 11.708000 -1.391800
-0.795993 12.343180 -1.735427
-0.639481 12.180108 -0.828496
2.978275 10.421078 -1.065482
4.499325 4.613555 3.207687
4.230214 5.329250 3.095712
-5.923120 13.775025 -0.096774
-5.910500 14.348763 0.074871
5.617162 6.765586 1.327144
-5.329663 3.618090 4.927579
0.415227 12.798916 1.566598
1.631666 9.603792 -1.747942
-3.806370 11.232334 -1.164726
-3.257290 11.964405 -1.381493
-3.489861 12.170577 -0.921290
-9.235827 11.667730 3.370557
1.383962 5.756621 5.024541
1.506578 5.847766 5.194340
-6.832474 14.733175 -1.678014
-3.018789 3.325678 -3.173728
5.732939 6.251595 0.447573
-6.346600 3.459000 3.733000
3.570159 11.567150 1.171093
-1.550100 7.160800 5.513400
0.410900 11.016200 -2.034000
-1.637675 9.779634 3.341624
-8.662868 8.336067 -0.460121
-3.341760 11.957107 -1.087928
-1.974520 3.693814 -0.154286
-7.186000 14.872800 4.042500
-6.980070 14.543736 -0.656139
-0.392684 12.714996 -0.830250
5.463300 7.090000 0.492200
4.590422 8.736341 3.458709
3.266061 5.512117 3.718681
3.495211 6.102248 2.998607
3.754400 5.549300 3.143000
3.982221 6.426814 2.849727
4.293986 6.239539 3.476055
4.699590 6.357195 1.283283
-4.654800 4.042500 4.445800
-8.434114 14.925111 2.440317
-8.243135 15.299338 3.167372
-2.694764 7.246620 4.464241
-4.957828 5.507791 -0.635697
-7.375315 14.984665 -1.799073
0.076064 10.250247 -1.750177
-0.030804 10.948352 -1.968636
-6.523431 2.878790 3.440092
3.584888 11.806585 1.301817
-0.896247 7.283117 5.515486
-5.958055 14.657764 -0.506583
1.066540 11.356037 -1.612255
1.166391 5.679018 5.420931
-6.225407 5.980382 3.678819
5.557900 6.869700 2.407500
0.032748 8.905716 5.881228
-2.587567 8.758353 5.505991
-8.618920 8.578312 -0.951596
-4.364008 7.265011 -1.671400
-4.247881 7.087526 -1.051005
-2.331369 3.937002 4.742311
-3.590258 3.486903 0.170728
3.973743 10.829075 0.316089
-6.270216 11.839127 -0.251138
-5.827697 14.810723 -0.630251
-3.594295 12.737392 2.762372
-0.278627 10.574139 4.245604
-1.485674 4.117402 4.959900
5.715355 7.439942 1.277125
-6.614700 3.533600 3.612500
-2.756385 6.045774 3.903048
-7.004504 4.030006 3.887426
-4.781336 5.409132 1.906538
1.758900 5.493900 4.812300
-7.586000 15.134100 -1.988300
-3.790411 7.177821 -1.484318
0.858300 13.309291 -0.033485
0.122093 13.011216 0.572619
-6.445300 3.514000 4.008200
-1.386876 7.245405 5.232422
-5.293040 13.574348 -0.213948
3.649783 5.996157 -1.510130
-5.988358 6.470107 3.651676
3.667700 8.617200 3.730600
-3.424500 5.193118 4.729550
-7.507607 8.571441 -0.610006
-4.346504 7.125761 -2.388560
-2.087686 8.479447 5.266779
-2.117104 7.964779 5.328551
1.830343 5.562191 4.310481
4.850258 5.857588 -0.950530
-0.696054 8.304529 -3.688957
-0.703880 9.203579 -3.602608
-0.538372 8.541985 -3.969799
-3.103300 3.836900 -0.025100
-4.268932 13.175874 0.609850
-4.258289 13.044443 0.542598
-7.196200 13.550400 -0.769600
-6.259964 9.967993 -1.693998
-5.816650 9.338871 -1.919666
-1.615177 11.287597 -1.758885
-1.870748 11.049607 -2.108638
-5.668045 13.935150 -0.024434
-5.230288 8.355129 4.260590
5.162700 7.362400 1.556700
-2.534805 8.341926 4.137801
-2.884050 6.555806 4.090117
-6.808512 8.693825 3.545594
-5.955994 8.341179 4.453288
-5.140481 7.702298 -1.672441
3.858646 6.256557 -1.299604
-1.890657 3.191150 -3.003630
-2.350717 3.958184 -3.724995
-8.358953 14.399674 -1.895159
-1.757757 8.021919 6.300303
-6.392071 14.206375 -0.172484
-5.893778 6.199901 4.226810
-2.930653 5.008953 4.403163
1.148445 10.954566 -2.200412
-7.443967 8.795341 -0.190709
-6.550000 8.329800 4.387100
-4.583800 9.707600 -2.188500
-4.483800 9.707600 -2.178400
-3.532800 8.514300 -2.375100
-3.447072 8.149187 -1.609324
-4.188650 8.718290 -1.960872
-3.075151 3.056530 -0.155882
-2.804888 12.764495 1.908491
-2.714200 16.822800 -1.793300
-5.461606 15.883672 1.228931
-0.875254 3.929243 -0.228270
3.346354 9.506070 4.311272
-3.057046 12.627331 0.420815
-5.304700 16.245701 0.378600
-5.817231 7.589457 4.681262
0.950240 10.568777 -1.978453
5.064233 7.207428 2.032462
-3.652838 6.306191 3.940791
-1.484082 17.328901 -2.723188
-1.221600 17.420500 -2.766500
-9.770078 14.271952 1.287803
-7.565997 15.510484 -1.623289
-2.076700 11.700900 -1.387800
-1.558128 11.610033 -1.040199
-4.677110 4.982785 -0.322918
-2.301625 3.135282 -2.782277
-3.556111 3.168631 0.586525
-5.702647 15.671307 0.816695
-6.728672 9.533718 -2.169247
-7.350667 15.075490 -1.774529
-3.352719 4.092692 -2.715654
3.048902 12.011843 1.629447
-1.549400 7.727300 5.643600
-4.347939 5.817896 -1.168779
-5.967483 6.641691 4.219379
-3.449331 4.753247 3.959223
-7.710968 8.593056 -0.868237
-6.805363 8.286698 4.261283
-6.367342 7.614106 4.713937
-7.407349 11.787924 -0.995337
-7.295700 12.551480 -0.568896
-7.691360 16.028250 -0.480497
-2.247998 12.624805 -0.435806
-3.558200 3.368300 0.849900
-1.150726 11.600945 -1.069213
1.727345 12.279603 3.778106
-4.588840 6.770713 -0.884187
-5.159467 7.815535 4.587695
-1.621214 16.413807 -2.265910
2.268342 4.848746 4.030746
-0.846624 3.378418 4.294074
-0.357059 3.077764 4.736580
5.266050 7.031070 0.776642
-2.660406 6.119012 4.533871
-0.923436 10.368716 -2.463570
-0.982846 16.726732 -1.741727
-0.926570 16.610950 -1.941890
5.533301 7.855908 1.023190
-8.906900 9.698900 1.940400
-1.930467 4.503418 -3.486921
0.631527 9.157226 -2.832324
-7.465856 15.729644 -1.477577
0.025460 12.434280 0.947749
3.078427 11.646891 2.395737
-1.657749 8.169938 5.926457
-6.424994 7.708948 4.763839
-2.157304 11.568860 3.688828
1.304600 9.467800 -2.623600
1.080822 13.488220 -0.320946
-0.099091 13.848964 0.554343
3.465200 7.609504 -1.423138
3.350353 7.919226 -1.201890
-1.218620 3.421812 -0.021857
-1.077300 3.878300 -0.390100
-8.030135 9.122081 0.025933
-6.511959 8.104201 4.171155
-4.995910 6.613500 -2.110413
-4.570000 6.949700 -1.605200
-3.420958 3.107382 1.688083
-3.662139 10.296404 -2.139985
-3.856148 9.886705 -2.617170
-0.978898 11.204475 -1.697264
-6.597892 3.519154 -1.358247
-5.110939 3.646704 2.959942
-5.592063 8.736912 4.459821
3.189457 4.863300 3.164656
4.963800 7.242400 1.922600
-2.957588 6.479033 3.916176
-1.948900 7.719600 5.535300
-2.197945 8.165557 5.327091
1.722296 6.765252 4.120790
2.267717 6.871840 4.380538
-2.161100 4.226100 -2.877600
2.909310 4.531597 -1.074265
2.604159 5.092584 -1.655438
2.675587 4.679208 -2.417810
-7.730757 15.208302 -2.285980
-8.666600 8.333000 1.149200
2.640616 11.795480 2.583916
-1.707720 7.524397 5.270907
0.266033 13.073175 -0.893693
-1.176301 10.425153 -2.679139
-6.346600 7.305900 3.925300
-3.379863 12.515596 0.268156
-2.151000 11.404300 3.769500
3.494400 10.998000 2.785400
-2.955630 3.650398 4.595890
-5.740389 7.899122 5.342313
-4.762000 5.773400 -1.128700
-4.868229 5.867134 -1.289896
-0.175236 3.421382 3.026149
2.035883 11.389841 4.523966
-5.479117 7.532755 -1.870541
-4.149455 3.549185 1.354277
1.241736 6.700546 4.148800
1.371238 5.754382 5.443367
-5.793491 15.662158 -1.835264
-6.184800 15.375200 -2.058000
-5.449100 3.450000 3.410900
-5.350000 8.201400 4.506000
-5.423386 3.995387 -0.712029
-6.234632 3.624121 -0.280990
2.978874 7.070625 4.142148
3.294695 6.652903 4.207013
3.768591 6.957608 3.486490
5.567934 7.177866 2.343472
-3.463238 6.740378 3.506140
4.672269 5.527111 3.314044
-4.662800 5.923000 -1.203100
-0.449372 3.535632 3.527796
-1.193000 9.755300 -2.937900
-2.475159 4.830613 -2.812013
2.787200 5.228400 -1.975400
-5.385621 6.954168 -2.172784
-8.194112 15.479229 -2.919369
2.672600 12.086600 2.524300
-6.272925 6.786562 3.961345
-1.685732 11.063224 3.853191
4.784921 6.312840 -0.142329
-3.730966 7.053431 -1.343666
-4.170300 6.666600 -1.534500
3.795200 6.594000 3.545600
-6.935934 8.055976 3.727554
-5.136222 16.346449 -0.687800
-4.335834 16.113689 -0.372976
-0.932608 4.008869 1.557589
-3.730213 3.101501 1.171565
-6.273588 4.087383 -0.471324
-6.265900 6.762100 -1.039700
-5.241972 2.885963 3.820511
-8.787906 8.926307 2.107225
1.803698 10.920212 -1.689027
-6.008589 9.011664 4.745656
-2.266743 3.865162 4.849367
4.715628 7.273195 1.667070
-3.585346 7.172535 4.483083
-3.054938 15.425182 0.477783
-3.542755 15.430605 -0.156709
6.166015 5.613830 2.683987
-1.484933 4.228929 -3.069293
2.798150 4.857241 -1.944847
2.875600 5.378100 -1.875100
-7.797500 15.970800 -1.992600
2.206750 11.985230 2.818882
-1.232300 12.409100 -0.743600
-6.622836 7.557542 4.140230
-2.150600 11.676500 3.552700
-0.764127 11.373247 -1.875700
-0.116149 11.215738 -1.633557
-0.717306 4.227591 -0.014869
-4.849442 8.323479 -1.289858
-4.986835 7.605192 -2.381872
-4.786819 8.145430 -1.656810
-1.419249 17.397684 -2.007392
1.020494 10.533660 -3.097261
1.659638 9.487532 -2.609594
-7.469886 12.166636 -1.022799
-5.842759 3.413053 4.537256
-0.998453 12.413510 -0.908727
4.650687 7.951556 0.875702
4.627400 7.751200 1.653700
4.350235 8.073102 1.002049
-6.009108 17.298149 -5.835354
-6.548335 17.000196 -6.421329
-1.547700 16.071400 -1.180300
-1.444731 16.406763 -1.073491
-1.073817 15.522131 -0.307897
-5.442299 8.764337 4.805134
3.803800 7.537300 3.564700
2.755300 5.507500 -1.981500
0.659580 3.155632 -1.980233
1.156378 4.447299 -1.905598
4.855732 6.789722 2.266541
-3.249600 7.181100 4.067700
-5.871502 6.197156 0.810199
-6.058125 6.622683 0.478888
-6.334255 9.521330 5.122120
-4.612376 8.044945 -2.508750
6.113283 5.274021 1.544939
-1.985879 4.301630 -2.672268
-1.315816 9.644908 5.057417
1.994893 12.563655 2.941130
1.980018 3.810361 1.201636
-5.885106 15.339560 3.750995
-1.934392 12.031429 3.468310
0.226325 13.339272 -0.374828
0.314909 12.856436 -0.692542
4.011284 6.337610 3.083854
-5.999156 14.419681 4.556646
-6.835148 14.486525 4.022300
-6.395094 14.973058 3.620629
-2.341486 10.173084 4.766135
-1.840908 3.220936 3.646598
-1.508418 4.168688 4.023899
-5.214006 16.837511 0.669677
-8.361000 7.692400 1.763500
-8.463394 7.625710 1.021548
-7.863128 7.648889 2.121387
-6.937729 7.431957 -1.002368
-6.192089 6.965660 -1.214489
-4.597560 13.485729 -0.894741
-4.640751 13.074552 0.681410
-5.648500 3.437800 3.900800
-4.240911 15.460631 -0.016635
-0.857172 11.275069 -1.863634
-5.325308 8.637412 3.925439
3.601184 7.394356 3.872325
3.819747 7.676367 4.132617
-3.112021 7.274808 4.314725
-3.518699 14.298029 -0.448957
3.279920 7.594135 3.820361
5.459845 5.465170 1.392530
-2.294568 4.614691 -3.069412
4.225852 9.776290 0.460482
3.302969 9.199268 3.666677
2.329261 12.661402 2.948479
-1.531974 4.637236 5.049048
-3.960269 15.230289 -0.481821
-2.130001 3.860822 3.179214
-8.386000 7.710800 1.569800
-2.151100 11.949200 3.286500
-6.404770 14.814129 -4.480072
-6.884995 15.855682 -4.061378
-3.804578 10.411119 -1.701195
-4.485089 10.625619 -2.450554
0.614495 3.116885 3.635429
-7.039188 8.726722 4.347101
-4.450100 16.521400 0.483200
0.137734 13.096198 -0.972813
-0.529705 8.984980 -4.013190
-0.549008 8.981204 -3.257951
-5.641569 3.627382 4.042725
-8.499000 12.796300 -0.300600
-4.856605 8.389502 4.291537
3.971591 7.275162 3.462532
-8.930691 8.323500 2.073576
-7.915527 8.379522 2.372945
0.079324 3.495086 -1.914176
-3.249200 7.464000 4.095200
2.966700 5.917700 4.101800
-5.320532 5.942193 -0.360770
2.617461 2.744418 0.918665
0.985554 2.479242 0.457581
6.018900 5.951800 1.717900
-1.806342 12.045548 2.885787
-1.953794 12.870732 1.972344
-1.991388 4.251729 -3.404046
-6.531569 15.528853 -2.374534
-6.846576 13.101155 5.295494
-9.319515 11.948864 3.293770
-0.751087 5.070381 5.289804
0.764658 3.452049 1.874561
-2.149800 12.081800 3.119700
6.010500 6.089700 0.716000
3.792500 5.758700 3.180300
4.070412 5.672818 3.257587
1.211445 4.697348 -1.010156
-3.920923 6.028754 -1.296053
-6.548500 9.450000 4.295900
2.754291 3.266570 1.192497
-6.077200 11.383600 3.657000
-6.576184 11.255305 4.023275
-6.413260 15.528942 -1.790069
-7.270849 13.395915 5.843534
-9.205886 13.552581 4.049196
-6.521798 3.201076 3.959285
4.519327 5.586269 -1.464783
-1.874754 3.987381 -1.236820
-0.751274 10.030864 -3.302822
