1.843710 -0.713188 5.553000
1.690056 -0.677479 5.610600
2.652358 -5.950304 3.847300
2.585182 -6.035863 3.836500
2.634468 -5.997185 3.677000
0.376393 -1.481459 -3.720200
0.447881 -1.412234 -3.704900
-2.104986 1.905723 2.789400
-2.187647 1.848094 2.755100
-2.111987 1.809203 2.914300
-8.478847 -0.216304 -3.158800
-8.479837 -0.217435 -3.058800
-7.781569 -5.327767 1.130800
-7.892514 -5.247086 1.130600
-7.875967 -5.231954 1.030600
0.840114 1.543543 -1.916900
0.908703 1.478490 -2.016100
0.831982 1.410537 -2.023100
-8.978913 -1.389960 3.229900
-8.992206 -1.493197 3.353100
-8.911737 -1.432528 3.389700
-9.925446 0.996950 -5.675300
-9.951821 0.953463 -5.564500
-9.839532 0.913016 -5.546200
-5.495068 -6.157769 3.215600
-5.538343 -6.204721 3.138200
3.482359 1.533997 3.908600
3.391426 1.633841 3.917800
3.436468 1.491076 3.993600
0.231295 2.721300 -1.075000
0.147290 2.674631 -1.104100
2.997284 -2.785011 5.507700
3.069197 -2.715219 5.510900
2.893410 -2.680854 5.605100
6.777406 0.273580 2.976200
6.721050 0.215385 3.034900
-8.880271 -0.068872 -2.382000
-8.810904 -0.111369 -2.245500
-8.816066 -4.239105 1.822200
-8.805459 -4.230761 1.722400
-8.751083 -4.368152 1.723100
-7.959265 1.091702 0.493200
-7.865927 1.149402 0.542800
-7.900645 1.211132 0.497100
-6.066410 4.014387 -1.766400
-6.197155 4.089552 -1.823100
-6.124252 3.952161 -1.714800
-1.454377 -5.574547 -1.506200
-1.526290 -5.645328 -1.519900
-1.557473 -5.473714 -1.564000
-0.710077 1.487328 3.979900
-0.878509 1.514340 3.916800
3.567707 -5.651551 4.758000
3.518493 -5.686623 4.912100
3.500108 -5.735697 4.744600
4.099098 2.131644 2.515300
3.986456 2.215295 2.517000
-7.352638 -2.121038 -0.809800
-7.423278 -2.190405 -0.817100
-7.457431 -2.016810 -0.790800
4.640742 -1.135189 4.451200
4.587143 -1.188505 4.517600
-7.950991 2.807072 -0.683600
-7.967114 2.707512 -0.857000
-7.995751 2.632488 -0.739700
0.220617 -3.018356 -3.901600
0.291823 -2.948140 -3.890200
-6.635207 -5.552768 0.936300
-6.715393 -5.441611 0.935400
-6.634359 -5.553192 0.836500
3.005628 -6.394932 -2.596700
4.573355 -1.788627 4.765700
4.493381 -1.670752 4.807200
4.425357 -1.740897 4.841700
-8.975448 -1.715724 -2.187900
-9.023390 -1.567514 -2.188800
-8.966255 -1.707380 -2.288200
-1.464347 -1.907138 -2.470300
-1.537674 -1.983576 -2.468000
-1.630093 -1.850286 -2.432700
-6.671270 2.130654 -1.449900
-6.777760 2.236862 -1.509600
-6.601337 2.201577 -1.462600
-8.590570 -0.679883 2.466600
-8.672028 -0.739987 2.431800
-8.614611 -0.733623 2.592800
5.648864 1.750726 0.729900
5.567547 1.700663 0.804400
5.636348 1.794496 0.848000
0.022627 -9.383590 0.245300
-0.050770 -9.450624 0.221000
-9.552518 -2.288127 0.522100
-9.530527 -2.084692 0.576300
-9.494606 -2.228659 0.422600
-9.804530 -0.386717 -1.980600
-9.810965 -0.490449 -1.868000
-9.734315 -0.411112 -1.829600
-7.529980 -2.926432 -0.766300
4.618327 -4.445085 0.298000
4.576890 -4.519049 0.488100
4.463894 -4.453146 0.366500
2.654337 -3.149878 5.401800
2.544170 -3.037872 5.471900
2.580940 -3.216912 5.432300
2.305946 -0.228325 5.297000
2.194718 -0.156695 5.254500
2.236720 -0.303349 5.323600
-8.985701 -0.149977 -1.997800
-8.878928 -0.172181 -1.976000
-6.898392 -5.429024 1.836200
-7.129192 -5.451793 1.833600
-6.922363 -5.443944 1.734100
1.825467 -7.405388 4.061300
1.765928 -7.406661 4.191400
1.755251 -7.480836 4.042400
-0.728108 -9.271513 0.064300
-0.657892 -9.363932 0.043700
-0.702793 -9.355376 0.193500
-6.323515 4.171930 -1.867100
-6.381851 4.112887 -1.811600
-6.260228 4.027892 -1.774600
-1.309632 -5.858168 -1.323900
-1.419234 -5.749697 -1.431100
-1.241326 -5.783921 -1.359700
2.427993 -2.357282 5.640800
2.499410 -2.286571 5.633100
2.330624 -2.259206 5.634800
2.234528 -7.017257 4.019100
2.164171 -7.092847 4.000200
2.210699 -7.049148 3.840100
6.181527 1.248326 2.793800
1.164251 -5.055036 3.700900
1.277459 -5.093997 3.754100
1.176343 -4.997689 3.753600
0.089449 2.826942 3.352800
0.027506 2.759908 3.395900
0.156200 2.699239 3.464800
-6.597943 -5.510837 2.035500
-6.703160 -5.423438 2.034900
-6.618802 -5.530989 1.936800
-6.322949 -6.008569 0.642600
-6.287452 -5.976608 0.542400
-6.219711 -6.093705 0.537700
-0.790899 2.297178 3.491100
-0.858710 2.229366 3.529500
-0.728037 2.165727 3.594700
-9.082504 -1.430194 -2.190600
-9.073311 -1.421992 -2.290700
-9.014975 -1.559948 -2.289200
1.561857 2.871843 -0.976400
1.639003 2.785647 -1.052800
1.550827 2.753474 -1.095400
0.278176 -1.385081 -3.678200
0.349523 -1.314441 -3.654900
-0.441164 -8.665523 2.867200
-0.459902 -8.502393 2.866800
-0.409768 -8.641764 2.767000
-8.597994 -0.112571 -3.159100
-8.599267 -0.113986 -3.059000
-8.700666 -0.787576 2.558500
-8.721384 -0.850437 2.683200
-8.640279 -0.791394 2.718100
2.393132 0.834245 -2.420700
2.475439 0.884025 -2.394300
2.486541 0.702511 -2.458800
0.879217 -0.991505 -3.557000
0.951341 -0.924613 -3.515300
1.048569 -1.021416 -3.565100
-8.942355 -1.208728 2.980900
-8.958548 -1.300582 3.104500
-8.880413 -1.230790 3.140600
-5.587134 -6.059198 3.206900
-5.630479 -6.106221 3.129200
-2.821568 0.863165 -0.351400
-2.764363 0.823214 -0.476900
-2.829841 0.716016 -0.441700
3.767253 2.606325 1.516300
3.762727 2.599820 1.615500
3.873672 2.514330 1.616300
6.803357 0.094894 2.994300
-6.566406 -5.856046 1.436700
-6.617954 -5.719221 1.435900
-6.618802 -5.720352 1.336400
0.185050 1.583141 3.982900
-0.397748 -3.069197 5.403300
-0.502258 -2.977132 5.408100
-0.537967 -3.018215 5.321100
2.306936 -2.091551 5.606900
2.233114 -2.160989 5.636400
3.617063 -5.616337 4.603600
3.546635 -5.692139 4.584600
3.869854 2.295834 2.516700
3.838034 2.259489 2.617700
-0.693672 -3.430316 4.457300
-0.665600 -3.395739 4.553900
-0.802990 -3.342918 4.465900
-6.850238 3.007396 -1.835800
-6.955597 3.112755 -1.859300
-6.778891 3.080016 -1.870200
-6.407307 -6.075532 1.936200
-6.382699 -6.051915 2.036400
-6.454895 -5.934040 1.936300
0.120845 -2.919432 -3.904200
0.192262 -2.849570 -3.883700
4.032418 1.405799 -1.374200
4.074349 1.454519 -1.275300
4.135160 1.314794 -1.271700
-7.371164 4.172213 -1.171000
-7.415075 4.126463 -1.087000
-7.329798 4.006113 -1.123000
0.819466 -6.666673 -1.398000
0.884378 -6.562446 -1.426600
0.867620 -6.674947 -1.564200
-8.876029 -3.918503 1.321700
-8.933021 -3.779344 1.322500
-8.868250 -3.911290 1.221500
-9.434714 -0.047871 -2.376000
-9.336638 -0.038325 -2.347500
-9.304252 -0.003818 -2.473700
-0.603374 2.732473 -0.721900
-0.541007 2.684531 -0.836200
-0.623739 2.633619 -0.860200
0.974464 -1.091419 -3.624400
-0.026163 -9.426440 0.407700
-0.099561 -9.493333 0.383600
-8.899222 -1.320593 3.266300
-1.576707 1.101814 -1.406600
-1.503309 1.184262 -1.414900
-1.505006 1.027143 -1.496200
3.100805 -2.888531 5.436700
2.533351 -0.371443 5.381200
2.421558 -0.296985 5.345100
2.463489 -0.446538 5.406000
-9.018228 -0.187595 -1.872000
-8.911525 -0.208738 -1.849800
-6.566547 -5.856612 1.337000
-7.363174 1.456569 0.442800
-7.445552 1.571616 0.444700
-7.514212 1.503663 0.491000
-0.438901 -3.115018 5.323700
-6.846561 1.741109 -1.321200
-6.953052 1.845761 -1.373100
-6.776699 1.813234 -1.344800
-7.876816 -4.492179 -0.072400
-7.913091 -4.526049 0.026900
-7.972983 -4.394032 -0.071900
6.958284 1.632497 0.915000
6.941597 1.612416 0.815500
6.851582 1.719825 0.915300
6.299544 -1.420224 3.018400
6.429439 -1.446033 2.969300
6.370184 -1.350291 3.034400
-0.288995 -6.117959 3.873700
-0.349381 -6.177356 3.814300
-0.244235 -6.268643 3.809500
-5.348344 3.722139 -1.500900
-5.380375 3.684168 -1.396700
-5.341060 3.651641 -1.467500
-5.052207 -7.217792 1.848000
-5.058359 -7.221116 1.747500
-4.937444 -7.295645 1.748600
3.953434 1.526219 -1.377100
-0.652306 3.284440 1.224400
-0.691055 3.269732 1.353400
-0.562221 3.315977 1.256700
-9.197550 -1.349655 -2.191600
-9.179519 -1.331341 -2.290800
-2.256519 -0.182716 -1.744400
-2.186516 -0.249750 -1.842000
-2.262671 -0.324208 -1.842900
0.178686 -1.285874 -3.642900
0.250174 -1.215941 -3.618200
-9.157881 -3.038579 0.816000
-9.110717 -2.994102 0.719100
-9.044461 -3.124139 0.720100
-6.661794 -5.565920 1.638800
-6.763052 -5.480926 1.634700
-6.666815 -5.577870 1.535400
-9.403884 -0.005728 -2.500200
3.490279 0.677408 -2.102100
3.574354 0.565898 -2.158900
3.484057 0.540795 -2.208400
0.779939 -0.893924 -3.518400
0.851427 -0.826396 -3.488800
-8.864008 -1.139008 3.016900
-5.670996 -5.953698 3.187500
-5.716110 -6.001498 3.111500
-2.819730 -0.271034 -1.292000
-2.894683 -0.340613 -1.296600
-2.966242 -0.266367 -1.205700
4.140605 -3.503926 4.842000
4.032135 -3.395739 5.012900
3.964182 -3.468924 5.003900
2.351979 -0.372221 5.370400
2.894895 -5.859228 1.833600
2.847590 -5.907099 2.001000
2.827084 -5.945142 1.823200
1.219830 -5.693695 -1.336500
1.180303 -5.725444 -1.242400
1.099268 -5.610751 -1.245600
0.478287 1.290894 4.365000
0.382898 1.386566 4.214700
0.405738 1.222729 4.368100
1.341452 -4.595699 4.338400
1.239346 -4.500664 4.338000
1.202718 -4.543656 4.251800
3.300562 -0.556281 5.093900
3.364909 -0.487409 5.052900
3.222003 -0.437275 5.135800
-8.106484 -4.329827 0.026900
-8.062149 -4.288744 -0.072700
-6.064077 -0.820315 0.840400
-6.067825 -0.827315 0.741000
-6.191639 -0.730512 0.839900
3.450823 -5.770981 4.899100
-6.594902 -1.211132 -0.309700
-6.577012 -1.276116 -0.349000
-6.641147 -1.261620 -0.386700
0.457003 2.622588 3.517300
0.333259 2.693158 3.464900
0.394707 2.558737 3.563800
-5.218307 -7.182791 1.847000
-5.839500 -3.905139 -0.975300
-5.941889 -3.806002 -0.892100
-5.871815 -3.733100 -0.939700
0.020506 -2.820508 -3.907400
0.091853 -2.750292 -3.894100
4.083754 1.249528 -1.375100
-0.727825 3.248802 1.480700
-0.638730 3.282036 1.512700
-0.601394 3.302118 1.385800
-0.462801 0.291682 4.405300
-2.334372 -0.249397 -1.752300
-7.404257 -5.515857 1.433900
-7.565477 -5.488987 1.432500
-7.556709 -5.481209 1.333000
-0.681015 -8.480827 0.913700
-0.661216 -8.635542 1.012400
-0.608253 -8.584418 1.080300
-9.463351 -0.092490 -2.251800
-9.365771 -0.084287 -2.223200
3.397295 0.661216 -2.160300
-0.076863 -9.460452 0.564100
-0.150331 -9.527557 0.540000
3.803245 -4.547121 4.830100
3.699653 -4.455551 4.817100
3.633751 -4.526403 4.853100
0.474893 1.101107 -2.004000
0.609172 1.182212 -2.017900
0.608112 1.030679 -2.103100
4.730969 1.793930 0.519200
4.735494 1.798880 0.618400
4.833216 1.698188 0.618900
2.637084 -0.455801 5.398800
2.567151 -0.530401 5.425200
2.780627 -6.441036 4.520500
2.710128 -6.516908 4.501600
2.759060 -6.481694 4.347400
-8.148981 -0.845700 3.575800
-8.148628 -0.987050 3.689600
-8.107828 -0.873843 3.618700
-9.235310 -3.304239 1.219700
-9.279787 -3.346595 1.324300
-9.338689 -3.213588 1.215000
-7.479139 1.748604 0.379300
-7.583155 1.855024 0.354000
-7.654219 1.785515 0.369500
1.102945 -4.227791 4.516600
0.984858 -4.142232 4.536900
0.950210 -4.182961 4.449100
3.282319 -0.377241 5.082900
3.189122 -0.278105 5.089200
-8.016611 -4.434549 0.027900
-5.781659 2.219396 -0.769200
-5.758324 2.345402 -0.905700
-5.707695 2.398153 -0.834700
3.394608 -5.400245 5.109700
3.229357 -5.377547 5.146300
3.325877 -5.476330 5.138000
1.699319 -6.459703 4.878700
1.662125 -6.501847 4.792200
1.733684 -6.620499 4.829300
5.654662 -1.532937 3.662600
5.595548 -1.592051 3.717200
5.681532 -1.706037 3.687400
-4.933555 -7.287796 1.847300
-5.344101 -4.824660 -1.267000
-5.408943 -4.896997 -1.223800
-5.444227 -4.724958 -1.203400
3.995083 1.575080 -1.277900
2.491632 -0.223799 5.314200
-9.397237 -1.353190 -2.192500
-9.330133 -1.289480 -2.294200
-2.805305 0.004031 -1.087500
-2.726462 0.070428 -1.079400
-2.736433 -0.061872 -1.186800
0.413021 -5.109200 -1.459400
0.563140 -5.146040 -1.340500
0.395768 -5.157283 -1.279100
-5.987568 -6.611519 0.942500
-5.992942 -6.615055 1.043100
-6.091796 -6.523555 0.941900
-8.494544 -4.491330 3.224300
-8.487191 -4.483128 3.324400
-8.560518 -4.363273 3.223500
-8.994115 -1.159655 -4.090800
-8.979620 -1.145442 -4.191300
-8.904313 -1.267842 -4.190300
0.995394 -6.173396 -1.239900
0.905026 -6.083876 -1.075600
0.974676 -6.011822 -1.088300
-2.573444 1.497794 -0.052600
-2.520694 1.487187 -0.209000
-2.588718 1.394273 -0.189600
-0.522410 -3.502158 -3.556600
-0.627345 -3.405568 -3.562900
-0.527360 -3.402881 -3.634200
3.734160 -4.622852 4.858500
-7.734829 0.048154 1.274400
-7.633430 0.045608 1.297000
-7.619641 0.139441 1.182400
-5.747859 -5.842328 3.159000
-5.796084 -5.893664 3.088400
1.944685 0.372080 -2.816200
1.854175 0.349594 -2.868500
2.882167 -2.103360 5.609600
2.955565 -2.034488 5.574800
2.786354 -2.006133 5.580600
-1.553231 -4.212377 -2.030800
-1.624649 -4.282097 -2.040300
-1.656115 -4.109492 -2.082000
-8.525091 -1.647064 -3.504000
-8.518657 -1.623517 -3.675300
-8.476443 -1.578757 -3.695900
-2.868874 -2.063479 -2.044600
-2.970414 -1.962080 -2.021800
-2.798658 -1.992132 -2.056600
-7.549143 1.678884 0.421100
1.744079 -4.565435 4.744900
1.861246 -4.611468 4.770300
1.788414 -4.514594 4.820000
3.864480 -1.152725 4.874700
3.783587 -1.038881 4.909400
3.808901 -1.207456 4.937800
-8.174154 -4.207285 0.027800
-8.137668 -4.172354 -0.069600
6.475472 -0.605637 3.250900
6.545263 -0.534148 3.243800
6.372022 -0.503177 3.259900
5.241358 -3.884279 -0.987600
5.180264 -3.895168 -0.842600
5.081340 -3.874167 -0.931800
1.776959 -4.952859 4.353100
1.676692 -4.847076 4.401800
1.614254 -4.926625 4.249900
2.219679 0.063003 5.155700
2.153564 -0.007071 5.191600
2.264439 -0.083014 5.226100
-5.226368 -7.188872 1.746900
-5.511756 -4.798002 -1.151100
-5.611529 -4.697947 -1.087700
-5.540535 -4.624125 -1.147600
-0.079832 -2.721725 -3.909500
-0.008980 -2.650590 -3.908600
-9.585964 -3.263015 1.516700
-9.549477 -3.226245 1.415400
-9.453735 -3.325099 1.420200
-0.766292 3.233246 1.609100
-0.676984 3.266833 1.641500
4.171435 -1.610436 4.890100
4.075622 -1.516461 4.889600
4.006679 -1.590495 4.920900
6.447612 1.088732 -0.218600
6.534303 1.116875 -0.172100
6.526737 0.989101 -0.288000
-8.193812 -5.158910 1.728300
-8.195721 -5.160253 1.828000
-8.291463 -5.065925 1.726900
-6.568881 -5.670148 1.835300
-6.549859 -5.652258 1.934500
-6.646733 -5.556374 1.834400
-9.488878 -0.146866 -2.128700
-9.393843 -0.133290 -2.099900
-8.913152 -1.275974 -4.090200
-1.415840 2.947857 1.508900
-1.449993 2.916815 1.634400
-1.329856 2.987455 1.541200
0.030264 2.901966 -0.765300
-0.054659 2.858903 -0.797300
2.842994 0.854044 -2.301900
2.924028 0.729734 -2.354900
2.829064 0.709440 -2.407600
3.620811 2.201365 2.973600
3.520685 2.290036 2.962900
3.479177 2.252913 3.065100
-2.474803 -2.877430 -2.243100
-2.544524 -2.948989 -2.230500
-2.575849 -2.777233 -2.218900
4.071238 -3.574566 4.830000
-7.089240 0.853407 -0.853600
-7.019095 0.925532 -0.890500
-6.913312 0.821163 -0.814200
2.660065 -0.628123 5.422700
2.726250 -0.558826 5.386000
-3.647469 -7.560032 2.073300
-3.659843 -7.619076 1.914700
-3.567919 -7.614974 1.983100
-1.824335 -2.818810 -2.407900
-1.894056 -2.890370 -2.396100
-1.925735 -2.718684 -2.385400
-7.688372 1.960807 0.286700
-7.757315 1.888470 0.296300
-7.026732 -4.341141 4.922600
-6.983740 -4.292775 4.995200
-7.140364 -4.262864 4.942700
3.697391 -0.934017 4.929800
3.639125 -0.989172 4.989700
1.322643 -1.675914 5.826800
1.251155 -1.746271 5.821100
1.347463 -1.842720 5.857000
2.258570 -6.985579 4.197600
2.206951 -7.012449 4.345800
2.185526 -7.052683 4.172900
1.480469 -5.270562 3.884700
1.529543 -5.219226 3.955200
1.412234 -5.150566 3.844500
2.776738 1.962009 3.982500
2.827932 2.013769 3.910700
2.664520 2.035619 3.943400
-5.381012 -7.143405 1.845800
-5.382355 -7.147860 1.746400
-6.870886 -4.138625 -0.645800
-6.803074 -4.068834 -0.688300
-6.698635 -4.170445 -0.659100
-5.297856 -3.740807 -1.394800
-5.364748 -3.813922 -1.330100
-5.399326 -3.640327 -1.333100
4.544151 0.304763 3.899500
-9.611632 -1.368605 -2.192600
-9.579105 -1.332684 -2.290600
4.420337 -4.518342 0.549900
-4.695755 -4.339656 -1.761400
-4.796376 -4.238327 -1.721800
-4.729767 -4.166061 -1.764200
-8.099908 -0.723653 -2.658100
-9.082504 -1.050619 -4.090800
-9.067937 -1.036619 -4.191700
-1.482591 2.883228 1.759800
-1.399576 2.936685 1.795100
-1.364716 2.962070 1.668100
-2.029114 0.187949 -1.653700
-1.946877 0.081105 -1.711300
-2.101521 0.104935 -1.644900
0.167726 -9.083777 1.773300
0.214395 -9.049411 1.837900
0.082449 -9.008823 1.895400
-3.182758 0.311622 2.410600
-3.182193 0.174585 2.523400
-3.118907 0.289631 2.567700
-9.042764 -1.102804 1.229700
-9.081938 -1.124865 1.359800
-8.963568 -1.026153 1.269100
-5.826277 -5.731383 3.131900
-5.873512 -5.782295 3.060300
1.287146 0.758796 4.860000
1.362171 0.699894 4.932500
1.415345 0.756746 4.870300
0.661852 1.106198 4.634200
0.571130 1.197627 4.504800
0.593545 1.034780 4.643100
0.344432 1.371858 -1.927300
0.415920 1.441225 -1.899900
0.440033 1.404950 -1.911600
-3.259197 -7.644814 0.817700
-3.317321 -7.660795 0.957700
-3.408467 -7.675998 0.895100
-6.729182 -5.438853 1.035900
1.468590 -4.875713 4.170500
1.505925 -4.832014 4.255700
1.367262 -4.780183 4.169600
3.523301 -0.717643 4.976200
3.463975 -0.780504 5.026600
3.554202 -0.880914 5.016000
-8.233551 -4.073642 0.030900
-8.183347 -4.026266 -0.069900
1.227042 -1.580172 5.772900
1.130381 -1.483793 5.749600
1.059670 -1.554786 5.747000
5.135646 -3.959586 -0.657800
-9.853816 -0.254841 -2.251700
-9.870433 -0.344290 -2.134300
-9.786499 -0.287934 -2.099000
5.816802 -1.777384 3.575200
5.764759 -1.824901 3.650000
5.844945 -1.950059 3.602600
-6.767719 -4.245893 -0.599300
-6.438914 -3.955697 5.279800
-6.539182 -3.856278 5.319200
-6.609751 -3.927412 5.292600
-0.178332 -2.622376 -3.901600
-0.109036 -2.551524 -3.907500
5.677502 -2.892067 4.222000
5.699281 -3.076056 4.230300
5.808246 -2.965252 4.103700
-0.802990 3.211679 1.736600
-0.711986 3.238620 1.767400
-2.021053 -0.934088 -2.204400
-2.093107 -1.017880 -2.195900
-2.174283 -0.917754 -2.131600
-6.679826 -5.589891 1.435500
-6.770689 -5.485876 1.435200
-6.770972 -5.489977 1.334700
-9.513556 -0.204778 -2.006400
-9.419087 -0.188656 -1.977200
1.491642 -3.120533 5.457100
1.392081 -3.019134 5.489700
1.325047 -3.094229 5.432900
1.579394 2.173929 -1.635600
1.665166 2.217275 -1.603400
1.656893 2.083419 -1.708700
-0.286025 1.154352 -2.023400
-0.357513 1.080742 -2.027900
-0.389192 1.240972 -2.004100
-6.480563 0.630669 -0.509800
-6.399882 0.683489 -0.469500
-6.395286 0.555998 -0.363400
-8.965973 -1.057549 0.969700
-9.005995 -1.078621 1.099700
-8.890524 -0.985636 1.006800
0.144250 -7.716515 -0.809300
0.044689 -7.617661 -0.734400
0.112430 -7.542708 -0.783700
2.371778 -3.007467 5.577200
2.302128 -3.079521 5.598900
2.402395 -3.179647 5.559900
-2.505774 -4.957738 -2.155400
-2.576344 -5.028873 -2.155800
-2.606466 -4.858036 -2.157800
2.751565 -0.727542 5.409300
2.809901 -0.668640 5.355700
-3.355505 -7.649057 0.741800
-6.583306 -5.689523 1.036900
-6.519525 -5.816943 0.938400
-7.892443 2.155261 0.022700
-7.886574 2.003587 0.129200
-7.799034 2.067651 0.177000
-0.195232 -3.736989 4.339300
-0.328168 -3.665995 4.378700
-0.361332 -3.702977 4.287900
3.608932 -0.826608 4.950800
2.680642 -2.890370 5.585800
2.580940 -2.792223 5.641200
5.067410 -4.159768 -0.236100
-0.922350 -5.508503 4.011500
-1.026012 -5.407246 4.078000
-1.093823 -5.482411 4.029700
-5.162657 -3.817175 3.783200
-5.108917 -3.729352 3.776600
-5.206993 -3.658570 3.727600
-5.517625 -7.086553 1.844700
-5.519817 -7.091574 1.745400
-6.975608 -4.037863 -0.663300
-6.906241 -3.964253 -0.711000
-6.509979 -4.026478 5.266200
5.509917 -0.754342 -1.170100
5.470744 -0.585202 -1.172800
5.542586 -0.723370 -1.074900
0.316784 -8.163831 4.697100
0.386646 -8.093968 4.696600
0.296490 -8.000560 4.657200
-9.752558 -1.308996 -2.192500
-9.743507 -1.299945 -2.291800
1.769818 -5.818145 -2.696700
1.709148 -5.933545 -2.727000
1.638296 -5.871603 -2.615900
-8.910960 -3.757424 1.221900
-0.824557 -4.511271 -1.787400
-0.756251 -4.438580 -1.825600
-0.654357 -4.539626 -1.800100
2.307643 0.790192 -2.450700
2.394829 0.672034 -2.500200
2.307077 0.640427 -2.544900
-0.539593 -6.758314 -0.839800
-0.474398 -6.683503 -0.917300
-0.370807 -6.786104 -0.878700
3.058025 0.360129 4.909700
2.955848 0.446750 4.894100
2.897016 0.387353 4.949900
-9.112061 -1.162766 1.488500
-9.035410 -1.075792 1.529200
-8.998712 -1.051963 1.399500
-5.905119 -5.620438 3.105300
-5.954405 -5.672128 3.035200
-6.270269 2.562343 -0.472500
-6.445632 2.596001 -0.616300
-6.337798 2.492693 -0.437300
2.162403 -2.231134 5.651500
2.062489 -2.130937 5.684800
0.609526 1.337280 -1.938300
0.530330 1.276752 -1.952700
-3.369505 -7.694453 1.110400
-3.462066 -7.700888 1.042000
-9.596853 -2.701996 0.824900
-9.539648 -2.644226 0.721000
-9.444330 -2.741382 0.721400
-0.455589 -6.886584 2.361500
-0.516754 -6.848612 2.448300
-0.491439 -6.844935 2.284700
3.445236 -0.606203 5.013800
3.375445 -0.676701 5.045400
-8.291605 -3.937524 0.028900
-8.239420 -3.888875 -0.071400
2.613820 -2.960161 5.536500
5.147596 -3.881026 -1.063900
-1.995880 2.386061 2.071500
-2.018931 2.318603 2.193200
-1.943837 2.398506 2.232300
2.715573 2.087803 3.871800
2.602224 2.158161 3.830000
2.548413 2.105905 3.896800
-6.639803 -3.755939 5.356100
-6.709948 -3.825518 5.336300
-0.277964 -2.525290 -3.870700
-0.208102 -2.453590 -3.883100
5.437651 -0.408142 -1.173200
5.475340 -0.367059 -1.076800
5.525686 -0.509895 -1.067200
-0.838699 3.187425 1.863600
-0.745361 3.206517 1.893100
1.519714 -5.839995 -2.427900
1.635609 -5.737959 -2.505100
1.570201 -5.826136 -2.489000
1.642750 -7.729667 -0.028900
1.572605 -7.806317 -0.046200
1.620618 -7.758305 -0.215200
-8.561790 -0.626355 2.341500
-8.640703 -0.695369 2.304600
1.291177 -2.918937 5.539600
1.224568 -2.989930 5.486000
0.160796 -0.227688 -2.899000
0.238649 -0.165817 -2.885000
0.221749 -0.269125 -3.022400
-0.435931 -6.864522 -0.792800
6.264754 1.477358 2.636500
6.146243 1.541139 2.580100
6.203236 1.415416 2.684900
3.127463 0.803485 4.553600
3.077824 0.755402 4.629600
3.169748 0.656124 4.620900
1.238922 0.526158 5.041300
1.144594 0.618789 4.940600
1.072186 0.552463 4.958000
-0.472630 -8.729516 -0.522800
-0.504662 -8.578549 -0.424300
-0.441800 -8.588802 -0.506800
-5.012963 -2.830548 3.547600
-9.517657 -2.814426 0.826000
1.181575 -5.795164 -1.152200
1.116027 -5.870613 -1.076000
1.085409 -5.699563 -1.076300
-6.552829 3.104977 -1.085900
-6.679189 3.183678 -1.134900
-6.615903 3.040630 -1.040600
-1.610860 0.976444 3.898900
-1.681995 0.906157 3.875600
-1.583283 0.807304 3.947100
3.600234 -4.967354 3.748200
3.532705 -5.053126 3.737700
3.582344 -5.014236 3.577700
2.897582 -5.736474 3.575500
2.827225 -5.813337 3.558600
2.876935 -5.774375 3.398700
-5.283078 -3.739605 3.742500
-5.839853 -6.836167 1.843100
-5.919262 -6.726212 1.842500
-5.917635 -6.724868 1.742500
-7.079624 -3.934413 -0.662900
-7.010044 -3.861015 -0.710600
-9.840734 -1.199607 -2.193300
-9.848654 -1.208516 -2.293500
2.034205 -6.155647 -2.960100
1.866408 -6.108059 -2.904600
1.950130 -6.018964 -2.900500
3.115442 1.300299 -1.981800
3.014184 1.390101 -1.960000
3.187779 1.366696 -1.927400
1.690975 -7.681584 -0.198100
1.405587 0.835942 -2.362800
1.484359 0.742604 -2.431900
1.399859 0.696571 -2.460500
-0.128623 -7.169002 -0.741800
-0.224436 -7.067957 -0.736500
-0.061023 -7.092069 -0.813800
1.594526 0.748968 4.869000
1.477924 0.818476 4.820900
-10.491697 0.935856 -5.559700
-10.579025 0.912733 -5.589500
-5.982830 -5.508503 3.077200
-6.031197 -5.560122 3.006900
-7.945971 -0.567312 3.394500
-8.051330 -0.694874 3.487200
-7.900999 -0.676630 3.523800
0.695934 -1.332613 5.727700
0.765867 -1.260842 5.729300
0.598637 -1.234750 5.712700
0.314380 1.540644 -1.872100
0.386363 1.612062 -1.838200
0.487762 1.512219 -1.865500
2.376162 -0.154856 5.267800
-3.423882 -7.715030 1.257100
-3.515523 -7.722242 1.189000
-3.190395 0.724289 0.469300
-3.131210 0.841033 0.515000
-3.093804 0.864579 0.385700
-5.956243 2.191607 -1.071000
-5.963244 2.318957 -1.175000
-5.885250 2.243084 -1.021400
0.182858 -5.791205 -1.131900
0.078701 -5.688038 -1.167700
1.706532 0.673873 4.907100
1.756878 0.722239 4.831200
-8.355952 -3.807982 0.027800
-8.301858 -3.758414 -0.070200
-1.733472 1.240336 3.695400
-1.806092 1.170686 3.674600
-1.709077 1.073954 3.787700
5.025903 -3.903017 -0.773200
-6.564567 -4.762859 -0.201300
-6.583306 -4.700987 -0.252100
-6.474835 -4.675249 -0.283500
-7.440531 2.003446 0.239400
-7.478786 2.170676 0.175300
-7.547234 2.104208 0.236900
-5.839783 -6.836803 1.743300
-5.307473 -4.996629 -1.285000
-0.377171 -2.427780 -3.835200
-0.306319 -2.355797 -3.856300
-6.739293 -3.656166 5.356500
-6.809863 -3.728150 5.331900
-0.869034 3.145918 1.988000
-0.776474 3.168899 2.018000
-3.033700 -1.775050 -1.928700
-3.115795 -1.826457 -1.951500
-3.194638 -1.733614 -1.880000
-4.048045 -4.282663 -1.958100
-4.145131 -4.182042 -1.903600
-4.076046 -4.108573 -1.939400
1.598273 -7.786165 0.145000
1.525159 -7.854189 0.121400
2.108168 3.299926 2.105900
2.059024 3.290239 2.224800
2.252701 3.237701 2.217100
1.190344 -2.817538 5.586700
1.121754 -2.883723 5.540800
-9.852755 0.932037 -6.136200
-10.013410 1.048286 -6.071200
-9.856644 1.010031 -6.116700
-0.331916 -6.966982 -0.754000
-0.266791 -6.891816 -0.831400
-0.164332 -6.994276 -0.806600
-1.194374 -0.836295 4.337400
-1.337634 -0.712410 4.324100
-1.309279 -0.882894 4.327900
4.570031 -0.573605 -2.079700
4.493239 -0.553665 -2.096100
4.442257 -0.508480 -2.087900
-2.287066 1.505147 -0.649500
-2.226043 1.464489 -0.772900
-2.300006 1.387273 -0.769800
2.945878 -3.439155 5.422100
2.848580 -3.342989 5.401000
2.876369 -3.511917 5.400500
5.197871 1.048569 2.456100
5.115069 1.180868 2.378300
5.078724 1.151028 2.484900
-3.031720 0.988747 0.434800
-3.029670 0.917542 0.262200
-3.093734 1.009041 1.582000
-3.157939 0.894914 1.536700
-3.115442 0.939957 1.704200
-7.281856 -4.784072 4.849700
-7.209802 -4.707634 4.881300
-7.323788 -4.632822 4.909200
-7.832693 -2.563050 4.935300
-7.690564 -2.474096 4.885700
-7.816712 -2.399143 4.835600
3.705027 -4.907392 3.441300
3.632195 -4.975274 3.417700
3.684521 -4.945434 3.264100
3.786345 0.896965 -1.871100
3.693077 0.867337 -1.940600
3.665429 1.035416 -1.890100
-9.309414 -1.338907 -0.353300
-9.331759 -1.366060 -0.458500
-9.282332 -1.512643 -0.387500
-5.313483 -3.564525 3.715600
-5.375779 -3.628518 3.762100
-6.200690 -6.433894 1.840300
-6.214479 -6.447117 1.740100
-6.110675 -6.535364 1.741000
-5.240934 -4.924292 -1.326900
-9.914344 -1.074095 -2.194000
-9.930961 -1.091561 -2.294000
-1.477146 -1.714027 -2.422000
-1.388970 -1.831902 -2.469300
-1.553726 -1.782263 -2.428000
-4.645338 -3.259974 -1.777400
-4.746030 -3.159848 -1.726300
-4.674754 -3.088289 -1.749200
-0.359493 -8.425884 2.669400
-0.284328 -8.365427 2.569700
-0.307238 -8.563417 2.570300
3.938797 0.423628 -2.073400
3.835206 0.518592 -2.080600
3.997840 0.493278 -1.975600
-7.618651 3.738049 -0.715700
-7.687877 3.655671 -0.692900
-7.513292 3.617841 -0.674100
-8.137173 -0.235679 1.094900
-8.170690 -0.271317 1.223700
-8.092837 -0.209869 1.259000
-6.058915 -5.393386 3.045800
-6.107352 -5.444793 2.974900
2.706734 -1.501824 5.553200
2.633407 -1.571757 5.575100
2.733887 -1.671813 5.540300
4.716897 1.725694 2.179500
4.683875 1.702713 2.304000
4.779193 1.604991 2.296700
5.682593 0.699894 -0.090000
5.602831 0.628618 -0.096300
5.528019 0.713754 -0.007200
0.522410 1.528058 4.215700
0.425113 1.625497 4.079600
0.356240 1.553655 4.076700
0.397818 0.603304 -2.127700
-6.210236 -0.749533 1.539800
-6.221196 -0.762473 1.639200
-3.480875 -7.726061 1.396800
-3.575061 -7.725919 1.322500
-3.228084 0.701167 0.598400
-3.168333 0.827103 0.646500
-10.001884 1.076217 -5.835800
-10.072453 1.100965 -5.987500
-3.776940 -5.248571 -1.894300
-3.705735 -5.176375 -1.902500
-3.604123 -5.278269 -1.904600
2.313795 1.312107 4.601200
2.371565 1.369878 4.543300
2.208719 1.394839 4.578800
-8.417753 -3.677026 0.028900
-8.354962 -3.619185 -0.068900
3.755091 -4.868359 3.281000
0.894702 -8.144809 4.629600
0.924966 -8.175781 4.588400
0.990869 -8.074806 4.598000
-9.258291 -1.590707 -0.489700
-9.255604 -1.589152 -0.390100
-8.739769 -4.360515 1.423300
-8.801712 -4.230832 1.422900
-8.731779 -4.353232 1.323500
-6.037631 -3.702765 -0.852500
-5.968547 -3.631700 -0.880700
-0.474186 -2.330765 -3.795100
-0.403829 -2.258287 -3.829300
-6.837440 -3.555616 5.354200
-6.907938 -3.627528 5.335700
-0.901137 3.110704 2.113300
-0.808930 3.134604 2.143500
-2.874036 -1.655549 -1.899000
-2.948989 -1.730927 -1.899200
-3.034973 -1.615103 -1.848700
-4.774526 -2.989082 -1.673000
3.646550 2.244357 -0.877200
3.598891 2.189910 -0.979100
3.522947 2.316058 -0.877700
1.556201 -7.851855 0.325500
1.483156 -7.919808 0.302200
-8.257098 -0.566322 3.017300
-8.194731 -0.588101 3.174600
1.089934 -2.716704 5.621800
1.020709 -2.789041 5.598500
-8.178185 0.034012 0.202300
-8.093261 -0.013718 0.094400
-8.136536 -0.192757 0.210400
1.021628 2.019780 3.983400
1.113905 1.964272 4.040300
1.167363 2.017446 3.974800
-9.250229 -1.387344 2.420200
-9.202429 -1.364009 2.584000
-8.527778 -0.780434 -4.938200
-8.579256 -0.658104 -4.994900
-8.582650 -0.613415 -4.870300
-6.239369 2.797456 -0.728200
-6.301029 2.731129 -0.684900
-6.140940 2.697895 -0.551800
5.604246 0.790970 -0.011600
0.247205 2.228801 3.731000
0.318693 2.299158 3.706900
0.149270 2.325745 3.677200
0.089873 -7.928718 -0.807800
0.172181 -7.886857 -0.861000
0.204778 -8.057058 -0.918300
6.665966 0.157756 3.095700
6.577437 0.267781 3.118000
6.518464 0.208243 3.171100
-3.010083 1.125643 0.909700
-3.042115 1.081166 1.034800
-2.977909 1.195435 1.080500
-8.671533 -0.867479 -0.072100
-8.767276 -0.880207 -0.101200
-8.706959 -0.893147 0.058200
-2.283106 -1.658448 -2.296500
-2.353746 -1.730361 -2.273100
-2.384576 -1.559100 -2.224700
2.266207 1.451337 4.519400
2.096784 1.470570 4.542200
3.734372 -4.906473 3.103700
4.074279 2.316553 1.916600
4.067561 2.309128 2.016700
4.179779 2.225194 2.016300
-1.129886 -5.302382 4.151500
-1.231497 -5.201902 4.192000
-8.027218 -1.101107 -2.804900
-8.059108 -0.977434 -2.881600
-8.039097 -0.929845 -2.775600
-5.391618 -3.436185 3.769300
-5.438288 -3.477763 3.855500
-6.100352 -6.525040 1.840400
-5.569385 -4.032701 -1.163800
-5.639035 -4.105462 -1.114800
-5.672340 -3.932433 -1.103200
-6.458148 -2.832246 4.895900
-6.412822 -2.787910 4.809800
-6.579204 -2.757151 4.850800
-2.957333 -1.548493 -1.838300
-3.120250 -1.504794 -1.797200
-6.411549 -2.215861 -0.770300
-6.515282 -2.113542 -0.768100
-6.341121 -2.146423 -0.742200
5.725231 -1.616093 -1.073400
5.740576 -1.596364 -0.974100
2.332462 3.109149 -0.082900
2.390374 3.090976 -0.104100
2.305451 3.072662 -0.179700
-0.643538 -6.653238 -0.888600
-0.578131 -6.578497 -0.965800
3.097976 2.690683 -0.479400
2.967303 2.758989 -0.482700
3.006335 2.800284 -0.379600
-6.449804 -4.227367 5.152400
-6.542081 -4.134524 5.221000
-6.525252 -4.283724 5.118200
2.400840 -5.581830 5.356500
2.306017 -5.487007 5.305300
2.236932 -5.557930 5.302900
5.229832 0.930058 2.598400
5.134939 1.024527 2.591500
5.185992 0.890742 2.686500
5.756768 0.622466 -0.183500
5.681886 0.535987 -0.172500
0.519723 -0.731290 5.612600
0.422426 -0.634699 5.585200
0.350371 -0.703076 5.592100
-1.903956 -4.568051 -2.001500
-1.976363 -4.637489 -2.025100
-2.008608 -4.464672 -2.079700
7.195660 0.405879 0.024700
7.136475 0.551755 0.022900
7.239713 0.454458 0.120400
-3.794830 -7.555648 1.954700
-8.196923 -0.296985 1.645900
-8.228389 -0.332552 1.773700
-8.115040 -0.243952 1.680200
1.365211 -7.798469 -2.241900
1.333391 -7.810489 -2.133200
1.289126 -7.660017 -2.221800
2.417881 1.226830 4.619500
2.475227 1.284177 4.561000
-8.479978 -3.546070 0.029900
-8.403964 -3.472884 -0.071700
3.652631 -4.937302 3.595100
4.182819 2.228942 1.917100
3.843832 0.961241 -1.781700
3.791860 1.122532 -1.768900
1.424749 -3.192941 5.405300
-6.285401 -6.328818 1.838900
-6.294170 -6.337162 1.739400
2.278157 -6.867421 -3.091500
2.332887 -7.062300 -2.973600
2.203910 -6.935586 -3.102000
-6.937637 -3.456550 5.327900
-7.007782 -3.527685 5.323600
-0.932815 3.074500 2.238500
-0.839265 3.092814 2.268200
-6.530485 -2.710552 4.773000
-6.659956 -2.644155 4.708600
-6.708110 -2.687925 4.788500
-1.428073 1.411809 -1.330900
-1.357645 1.496379 -1.341900
-1.361605 1.353685 -1.436900
-6.618307 -2.010092 -0.747100
-6.548162 -1.940796 -0.719500
-6.444430 -2.042690 -0.733600
3.714008 2.107602 -0.977900
1.505855 -7.890887 0.486700
1.435639 -7.967750 0.469500
-6.238450 -1.048710 2.584300
-6.132101 -1.067519 2.608800
-6.098513 -1.030113 2.479700
0.989313 -2.614669 5.667000
0.919168 -2.686794 5.657500
2.448145 -5.350394 5.286200
2.428417 -5.191224 5.186800
2.355019 -5.255571 5.217000
2.302764 -5.773527 5.371300
2.331755 -5.653319 5.360200
2.259630 -5.724595 5.343700
5.094775 0.991576 2.695900
0.828305 2.857560 -0.924100
0.739704 2.828781 -0.969100
0.670620 2.895602 -0.872400
0.328805 1.721805 4.011600
-1.212617 -4.690310 -1.856100
-1.282267 -4.761657 -1.858700
-1.313804 -4.589830 -1.887200
6.827965 -0.080469 3.014600
6.749193 0.041436 3.060300
6.771750 -0.134280 3.077900
-0.293379 -8.886989 3.902700
-0.253639 -9.048068 3.850700
-0.222032 -9.009247 3.940300
-3.075561 1.046447 1.161500
-3.106320 1.010173 1.288800
-3.042115 1.114966 1.332400
-2.781617 1.449003 1.919300
-2.850347 1.355665 1.877900
-2.805941 1.381121 2.041800
1.551534 -7.223096 4.276000
1.510946 -7.075452 4.212200
1.334240 -7.204075 4.305900
2.154201 1.525724 4.481300
3.807416 -4.838378 3.127300
3.784365 -4.867511 2.943200
3.966374 2.406921 1.916400
3.959091 2.398506 2.016600
-1.331553 -5.102695 4.207200
-1.400779 -5.174466 4.180700
-9.028057 -2.322846 3.970800
-8.969508 -2.260196 4.026400
-9.044603 -2.199102 3.891100
-5.455753 -3.285784 3.860300
-5.498674 -3.327857 3.949300
0.039315 3.209133 -0.191100
-0.047588 3.171020 -0.230600
-0.109036 3.214507 -0.109100
2.918725 0.430416 -2.540100
2.997496 0.429426 -2.512700
2.923462 0.360342 -2.562000
-2.622942 1.170686 -0.441800
-2.564959 1.137735 -0.573800
-2.633831 1.045104 -0.554300
-2.924099 -5.810509 -1.899700
-3.026063 -5.708402 -1.923200
-2.854590 -5.739020 -1.913400
-3.450186 -7.646582 0.666700
-3.414477 -7.603661 0.551600
-6.775285 1.392647 -1.121600
-0.852559 -6.447612 -0.991200
-0.956503 -6.346354 -1.031000
-0.786656 -6.374356 -1.056700
-7.104655 -1.669267 -0.686000
-7.188165 -1.625638 -0.679800
-7.150334 -1.583424 -0.656800
2.213668 -5.394093 5.230400
2.143170 -5.464875 5.220200
-7.343092 2.731624 -0.339200
-7.429430 2.856570 -0.297200
-7.386862 2.688844 -0.251300
6.472855 -1.028840 3.149000
6.612156 -0.884166 3.155200
1.394273 -1.605557 5.815000
-3.517786 -7.694665 1.706100
-3.431377 -7.677412 1.762300
-3.587931 -7.664401 1.814200
0.547371 -7.274502 -1.040700
0.446821 -7.174235 -1.001700
0.517319 -7.101332 -1.024600
6.606781 0.098712 3.149900
6.693049 -0.012587 3.123600
-6.250400 -5.064157 3.136000
-6.251885 -5.156435 2.993000
-6.187255 -5.135504 3.087500
-2.946443 1.231002 0.953500
2.068853 3.248307 2.418700
1.976717 3.259409 2.483000
2.051741 3.228225 2.518700
-3.131705 -1.748746 3.722500
-3.199517 -1.821366 3.706600
-3.102148 -1.919017 3.782700
2.926574 0.794929 4.693600
2.830407 0.888409 4.692000
2.769596 0.827032 4.743800
-8.463149 -3.340302 -0.067700
-8.599479 -3.282036 0.035600
-8.473826 -3.273622 -0.076900
5.976254 -0.109389 3.165300
5.908443 -0.181302 3.140300
6.005882 -0.279166 3.184600
1.191546 -6.083593 3.966900
1.085550 -6.105726 3.891600
1.175353 -6.199771 3.964000
0.061448 -0.057629 -2.500300
0.146795 -0.006223 -2.479100
0.118865 -0.085631 -2.637500
-0.150684 -7.698201 4.219500
0.090580 -7.626076 4.343900
-0.005303 -7.560456 4.204100
-7.037480 -3.356565 5.302200
-7.107342 -3.427700 5.299200
-0.961877 3.029458 2.362000
-0.870519 3.055196 2.392800
-6.793033 -2.578253 4.636800
-6.837723 -2.621386 4.724100
-2.691036 1.071479 -0.415100
-3.431943 -5.307756 -1.928100
-3.261813 -5.335898 -1.977700
3.754383 2.155191 -0.877700
1.452963 -7.920869 0.640700
1.379848 -7.988751 0.617300
-9.279362 0.310278 -4.259500
-9.382388 0.309501 -4.136800
-9.266776 0.273367 -4.118900
0.888550 -2.513765 5.713900
0.818759 -2.587940 5.697900
-8.022126 1.430760 0.289100
-7.925536 1.417042 0.401200
-7.942223 1.591697 0.301600
3.754101 -0.875893 4.871400
1.098208 1.982232 -1.653700
1.172737 1.898935 -1.734300
1.018163 1.922270 -1.668400
1.298531 -1.509814 5.768900
-3.498764 -7.653158 1.876500
0.616951 -7.200822 -1.078100
3.278501 2.075712 3.555300
3.321846 2.115805 3.463100
3.173919 2.161625 3.530900
-3.572445 -7.725000 1.455300
-3.742151 -7.688796 1.554400
-3.750494 -7.696009 1.454400
-8.269967 -0.357584 1.901700
-8.188367 -0.299460 1.937100
-3.036529 -1.847458 3.804600
-8.540506 -3.414548 0.032500
3.872895 -3.802042 4.725400
3.753747 -3.682046 4.967100
3.682117 -3.750848 4.952100
3.907048 -4.760809 2.806600
3.854580 -4.790648 2.960500
3.836832 -4.837530 2.789300
3.852883 2.491420 1.917000
3.848429 2.485127 2.015700
-1.431467 -5.002215 4.216500
-1.501541 -5.074128 4.207500
1.562847 -7.022560 -2.848000
1.496450 -7.098009 -2.785100
1.465196 -6.926747 -2.773300
-0.846124 2.563404 -0.776300
-0.785737 2.522816 -0.898600
-0.864862 2.462358 -0.913300
-1.639922 -6.654865 -0.761300
-1.569777 -6.584720 -0.788700
6.206630 1.370585 0.012000
6.288937 1.417820 0.040400
6.286886 1.275338 -0.063200
-1.999910 -7.279169 -0.283800
-2.111774 -7.169568 -0.444100
-1.937331 -7.196509 -0.359200
3.466025 2.251074 -0.978800
3.456550 2.197759 -1.039600
-8.905161 -1.651519 -2.888000
-8.894484 -1.641548 -2.987800
-8.813025 -1.749029 -2.940300
-0.747907 -6.552829 -0.929300
-0.681934 -6.476532 -1.004300
2.124997 -5.304856 5.109300
2.051529 -5.373658 5.101500
3.038296 -0.238154 5.153200
2.983991 -0.292035 5.219200
3.072733 -0.393222 5.204000
-5.787174 -0.974464 0.640500
-5.630126 -1.035204 0.541300
-5.778830 -1.011941 0.490200
2.165020 3.135029 -0.183300
2.190193 3.163171 -0.083200
0.480479 -7.347476 -1.011900
-4.007528 -7.507989 1.953700
-3.954848 -7.515272 1.953800
-3.929180 -7.497100 2.055000
-9.322920 -1.197980 -0.470800
-9.335224 -1.036336 -0.576500
-9.384156 -1.176626 -0.628600
-3.229074 -1.651660 3.610000
-3.295683 -1.724775 3.604000
2.861025 0.729663 4.740400
1.694652 2.601022 -1.271100
1.780000 2.642104 -1.237100
1.766423 2.526846 -1.360600
0.638942 0.134492 5.207200
0.711137 0.203717 5.160500
0.549705 0.221042 5.072000
-1.231780 -2.388890 4.775700
-1.282055 -2.248246 4.707100
-1.270176 -2.429265 4.689300
2.288551 -7.049360 2.304700
2.215790 -7.117171 2.280900
2.265570 -7.078280 2.120600
-9.187651 0.249538 -6.059200
-9.014622 0.265306 -6.007700
-9.084908 0.146795 -6.019800
-7.136617 -3.256156 5.259000
-7.207539 -3.327503 5.279100
-0.987333 2.975293 2.484500
-0.898874 3.009164 2.516300
-6.917696 -2.504784 4.584000
-6.963022 -2.549827 4.669700
-8.189074 -0.872640 -3.350800
-8.232915 -0.748897 -3.409600
-8.215662 -0.701945 -3.302900
-1.352200 -1.336078 -2.409000
-1.259357 -1.470075 -2.440000
-1.426517 -1.412234 -2.408700
-2.220669 -7.062653 -0.581900
-2.159716 -6.978649 -0.682100
-2.044034 -7.099140 -0.503300
-3.179152 -7.575518 0.354500
-3.197961 -7.591781 0.454600
-3.350272 -7.550203 0.351300
1.370939 -7.852562 0.723200
1.303198 -7.938405 0.712700
1.560373 3.288966 -0.202000
1.497794 3.342635 -0.058200
1.609587 3.318947 -0.040800
0.786515 -2.415547 5.744900
0.719269 -2.488167 5.720700
-1.055428 -3.581496 -2.853300
-1.036760 -3.565798 -2.955000
-0.943988 -3.672288 -2.952600
-0.890460 -6.272956 -1.096000
6.375840 1.407284 2.678700
-3.711038 -0.036345 1.010600
-3.742292 -0.081883 1.138200
-3.674410 0.011597 1.179600
1.990930 2.106047 4.029900
1.924745 2.044670 4.074900
2.045448 1.977283 4.129000
-1.976646 1.774555 -0.622600
-1.899077 1.841235 -0.615600
-1.911663 1.718340 -0.729500
0.254417 -0.607688 5.539900
-4.143434 -7.464290 2.182900
-4.236277 -7.470442 2.115700
0.379151 -7.247845 -0.963700
0.277327 -7.146163 -0.937800
0.347260 -7.073401 -0.960400
-5.947617 -3.933776 5.042800
-5.870542 -3.851045 4.973700
-5.982477 -3.761455 5.128400
-0.911178 2.270944 3.480700
-0.982596 2.184111 3.509200
2.443478 0.874833 4.814300
2.380687 0.808506 4.855800
2.480743 0.721602 4.870800
-8.640633 -3.128028 0.031500
-8.578054 -3.170950 -0.010100
6.084937 1.343644 2.716900
4.708836 -4.434196 2.005800
4.790224 -4.393113 2.048500
4.634590 -4.392901 2.108200
3.741514 2.576626 1.916000
3.733453 2.567434 2.016000
-1.531028 -4.903220 4.218400
-1.601950 -4.973577 4.235200
-8.004307 0.838063 0.564300
-8.017035 0.664539 0.628200
-7.940809 0.745149 0.666200
-0.926027 2.504289 -0.791400
2.357211 -6.444147 2.422000
2.310118 -6.491947 2.588900
2.343493 -6.708746 2.540300
2.676823 -6.295655 -2.925800
2.645569 -6.125525 -2.903700
0.686742 1.404455 -1.930000
0.762403 1.477287 -1.925800
0.757311 1.334876 -2.022400
-3.203618 0.048366 -0.618600
-3.147403 0.009829 -0.745000
-3.216629 -0.082166 -0.726100
-4.564516 -5.455329 -1.593000
-4.664783 -5.352233 -1.587100
-4.494088 -5.381790 -1.627000
-4.612953 -7.377599 0.451000
-4.648449 -7.406590 0.551600
-4.719584 -7.293594 0.448900
1.667287 3.268743 -0.180400
-0.961948 -3.687138 -2.851700
-0.710147 -2.377222 -3.704000
-0.824204 -2.393698 -3.657500
-0.756109 -2.292935 -3.678300
3.417730 2.376162 2.949600
3.375798 2.339039 3.045700
-7.664472 -1.766353 -0.893600
-7.658179 -1.638720 -1.015000
-7.617025 -1.588374 -0.933500
2.038518 -5.219226 4.918800
1.966464 -5.288169 4.930900
-7.385801 0.386575 1.034100
-7.559749 0.418112 1.019200
-7.457360 0.316289 1.071800
-0.250952 -0.802213 -3.180300
-0.186323 -0.852700 -3.297300
-0.260640 -0.928855 -3.296600
-7.209236 -4.800124 4.829900
-0.925886 -6.095402 -1.183100
-0.860408 -6.024126 -1.238600
-0.757594 -6.123262 -1.222600
3.218609 2.202355 3.444700
3.108583 2.278298 3.413100
3.065096 2.237498 3.505000
4.557445 -4.342201 2.204800
4.477754 -4.283016 2.294200
4.473582 -4.374587 2.155100
-0.540725 -0.420375 4.565000
-0.614264 -0.581878 4.760300
-0.486207 -0.419739 4.727500
2.726038 0.971706 4.671400
2.669823 0.915915 4.733500
-8.503383 -3.184950 -0.071300
-8.433804 -3.114523 -0.180000
-8.387418 -3.266692 -0.170300
-1.116946 1.468944 3.874500
-1.046164 1.540149 3.851100
-1.214668 1.567939 3.752300
-0.733977 -6.187609 3.517600
-0.691975 -6.140374 3.596400
-0.840821 -6.101554 3.528500
-0.725774 2.482369 -1.021000
-0.805607 2.423043 -1.036200
-7.236107 -3.158080 5.228400
-7.065411 -3.186223 5.243000
-7.164689 -3.090905 5.197500
2.575778 -6.196023 -2.909400
2.474167 -6.094412 -2.914600
2.544382 -6.024196 -2.908700
-1.013001 2.918230 2.607100
-0.922350 2.945383 2.638400
-7.036844 -2.424103 4.542400
-7.081392 -2.466388 4.630300
-0.257316 -1.707026 -3.736600
-0.332057 -1.783323 -3.736600
-0.415425 -1.681005 -3.670900
-0.561513 -1.835437 -3.666100
-0.478641 -1.937260 -3.732200
-0.634840 -1.918664 -3.660200
-4.799417 -5.078865 -1.552400
-4.868289 -5.150849 -1.525500
-4.899684 -4.978597 -1.501400
-0.218496 -7.227480 2.865300
-0.210930 -7.219631 2.965500
-0.281216 -7.097726 2.864500
1.291601 -7.793307 0.812100
1.226618 -7.888130 0.808000
1.435710 3.401325 0.084100
1.537604 3.384284 0.110000
0.689571 -2.316058 5.766500
0.620840 -2.388324 5.729300
-1.147210 -3.474298 -2.855200
-1.115320 -3.448348 -2.954900
-3.179081 0.278529 -0.369700
-3.119472 0.243810 -0.500900
-3.189617 0.165463 -0.497000
4.316038 1.574020 3.040100
4.279410 1.542907 3.144900
4.372183 1.444336 3.136900
-3.595850 -0.010677 0.317900
-3.636933 -0.022627 0.449900
-3.533766 0.113349 0.366500
3.517856 -1.112420 5.091400
3.579021 -1.052104 5.040200
3.435266 -1.001829 5.121600
-2.504714 1.590142 -0.071800
-2.432164 1.673439 -0.082300
-2.452600 1.579747 -0.228600
-6.765951 -1.169767 -0.370700
-6.749051 -1.055145 -0.246000
-0.824345 -6.196377 -1.170600
2.379131 2.671167 3.248900
2.425023 2.715361 3.163900
2.261398 2.740392 3.198700
-4.075905 -7.487271 2.068800
-9.540143 -0.633426 -1.257000
-9.546861 -0.756675 -1.143300
-9.470705 -0.675428 -1.103700
-0.337926 -8.337567 4.241200
-0.374625 -8.379215 4.154800
-0.313814 -8.505505 4.205200
1.857499 2.555555 -1.314100
0.907713 -1.119562 5.732600
0.978636 -1.048922 5.733400
0.811476 -1.022759 5.690300
4.853440 -4.399053 1.920000
4.778062 -4.457884 1.890100
3.625973 2.658227 1.916100
3.618548 2.650095 2.016200
-1.629952 -4.804296 4.221000
-1.705754 -4.871612 4.278600
-0.798324 -6.052551 3.605800
-7.307383 -3.227094 5.266300
-2.789324 0.272024 -0.876500
-2.721725 0.207112 -0.976700
-2.797739 0.138452 -0.982400
0.988394 1.538382 -2.001300
1.067731 1.598486 -1.986200
1.056276 1.477429 -2.104000
-3.367455 -4.811650 -2.137200
-3.468712 -4.710533 -2.123500
-3.298653 -4.739312 -2.176200
7.472987 -0.585202 1.222200
7.467401 -0.594606 1.322300
7.448309 -0.661216 1.350000
-3.244842 0.184060 -0.349200
4.319432 -4.596194 0.873600
4.418993 -4.617549 0.962500
4.258268 -4.599376 1.009000
5.108917 0.648346 3.068700
5.070309 0.617234 3.174400
5.162940 0.518521 3.166800
-4.085239 -0.463721 1.835700
-4.112674 -0.514349 1.962800
-4.021104 -0.488681 1.993700
1.952888 -5.134444 4.649600
1.881258 -5.204235 4.686500
1.623588 -0.746634 5.646100
1.604708 -0.824345 5.663200
1.676692 -0.755614 5.624700
-0.792667 -1.091490 -2.773300
-0.724077 -0.999142 -2.790800
-0.739846 -1.108814 -2.921000
-8.191903 -2.556120 -0.609900
-8.296201 -2.452953 -0.596800
-8.121546 -2.483642 -0.647600
2.307148 2.784304 3.113500
2.189203 2.854024 3.063600
2.143311 2.808133 3.147500
2.470631 -6.732505 4.764300
2.426366 -6.778184 4.922000
2.400345 -6.808166 4.745300
-9.010308 -1.873904 3.713300
-9.084484 -1.956423 3.675500
-9.011227 -2.022325 3.832600
1.467812 -6.514433 4.509800
1.431750 -6.559688 4.427000
1.497511 -6.684280 4.471800
1.141695 1.805809 4.259900
1.080035 1.740614 4.304700
1.205688 1.684258 4.376200
-8.678322 -2.965747 0.022300
-8.636461 -2.925018 -0.079000
-8.554083 -3.039074 -0.077000
1.004940 -1.217072 5.750300
0.933169 -1.287288 5.754000
4.641166 -4.309957 2.254300
-0.482318 -3.625549 4.314100
-0.602314 -3.545716 4.337300
-0.605637 -3.579587 4.279600
3.835701 -2.774616 5.221400
3.760960 -2.841296 5.281300
3.864763 -2.942696 5.250200
2.371495 -5.993013 -2.924100
2.442700 -5.922656 -2.913500
-1.038103 2.861308 2.729200
-0.946533 2.886410 2.759900
-7.151112 -2.340665 4.516000
-7.193680 -2.379839 4.606300
-1.709926 2.351413 -0.265600
-1.635538 2.427073 -0.267600
-1.652933 2.318603 -0.397100
5.614994 1.535129 0.464000
5.690654 1.609092 0.464100
5.679411 1.484571 0.346600
-3.570394 -4.609417 -2.110800
-3.502866 -4.535949 -2.164000
-6.286745 -6.154516 0.739900
-6.354627 -6.034308 0.739800
-6.258178 -6.129909 0.640600
0.988252 -8.406227 2.304500
0.912451 -8.464775 2.274400
0.967605 -8.446956 2.130800
1.376808 3.443539 0.225200
1.479409 3.430599 0.249900
0.590363 -2.217699 5.781000
0.521916 -2.288551 5.750300
-1.199889 -3.332665 -2.857200
-1.161352 -3.300492 -2.956900
-3.074571 0.580747 -0.119500
-3.020053 0.562574 -0.267800
-3.089208 0.470650 -0.248900
5.288947 0.440315 3.033500
5.255642 0.418890 3.158300
5.345939 0.317986 3.148400
-8.095666 -0.854609 -2.957400
-8.110656 -0.900147 -3.064100
2.851691 0.530259 4.874400
2.796395 0.474539 4.936100
-0.324491 -0.879004 -3.179000
-3.723978 -7.511666 2.169500
-3.790729 -7.485927 2.283200
-3.886895 -7.483806 2.209800
6.545051 2.000193 1.315200
6.546112 2.002102 1.415300
6.660734 1.923543 1.416000
3.219316 -5.497331 0.641300
3.174202 -5.554324 0.815500
3.148605 -5.574547 0.624500
-8.085342 -1.328654 -2.876500
-8.081028 -1.198475 -2.999100
-8.054229 -1.149756 -2.901800
1.320027 -3.979456 5.032500
1.364221 -3.929322 5.108100
1.201092 -3.896724 5.054000
1.006354 1.854600 4.171100
0.109814 0.530825 4.402500
0.011597 0.625507 4.288600
3.509654 2.738625 1.915900
3.501381 2.729079 2.015800
-1.728805 -4.704028 4.238900
-1.809133 -4.771910 4.314500
-1.007698 -2.336210 5.147200
-1.067448 -2.206173 5.093700
-1.039023 -2.375596 5.056800
-6.349819 3.103067 -1.055700
-6.417913 3.034690 -1.019700
-6.261855 2.979182 -0.918500
3.733807 -2.673854 5.253500
-2.658934 1.303269 -0.171000
-2.606749 1.286439 -0.319800
-2.675904 1.194515 -0.300600
-5.627368 2.493895 -0.647100
-5.564365 2.688279 -0.674600
-5.592366 2.635246 -0.579600
3.771213 2.607173 0.318600
3.649025 2.681420 0.318200
3.664369 2.699168 0.418200
0.930623 -8.415773 2.441500
0.860195 -8.491150 2.423100
-3.141393 0.487621 -0.099600
4.355636 -4.611892 1.091300
4.200002 -4.611538 1.151300
-2.917664 -4.971668 -2.141100
-2.847378 -4.900816 -2.142100
-2.747393 -4.999952 -2.154300
-3.510219 0.011738 0.054900
-3.449550 0.127845 0.100600
1.879490 -5.048318 4.409900
1.804254 -5.125393 4.355900
3.982072 -1.422204 4.890400
3.834004 -1.376242 4.965300
-1.646357 -0.093267 -1.954900
-1.572747 -0.175928 -2.038200
-1.717916 -0.177555 -1.944800
-3.819225 -7.507070 2.095300
-10.554488 0.828093 -5.830400
-10.589914 0.859559 -5.798000
-10.529951 0.880631 -5.842800
