0.252399 -2.459981 -3.601671
-6.687248 -3.040434 3.438711
-2.479797 -0.208288 4.530534
-8.088600 -1.276200 3.372700
1.441765 -2.404260 -2.499675
-8.318500 1.075000 3.233500
-3.825200 5.435800 -0.883500
-5.128400 3.851100 2.236700
-4.544435 3.400206 2.520866
1.815482 2.383614 1.674997
-3.374100 -2.482600 -2.548800
-4.056334 -6.454426 -1.350752
-5.463539 -4.988206 3.627588
-2.438704 -2.565436 -3.270000
-7.205400 -3.600000 0.639200
-5.055500 -5.091300 3.731000
-3.860915 -4.965966 3.652242
-8.067800 4.036400 -0.279000
3.660718 -5.057970 -0.904273
-0.845801 -6.531719 2.496108
-1.365140 -5.032949 -3.460535
-1.843423 2.773395 0.208799
-2.609511 -2.452950 -3.245000
-6.519128 5.730595 -0.748042
0.250416 -2.350038 -4.092180
-6.765000 -3.328400 2.978600
-2.380941 -0.151363 4.870643
-7.761152 -1.236625 2.869252
1.647290 -2.403314 -2.796584
-8.349996 1.163980 2.988418
-8.286016 3.145356 0.076745
-6.264663 0.053508 -1.436033
-7.670959 4.974231 -2.079869
-7.367900 4.579100 -1.285400
2.114697 2.442663 1.655974
1.213058 -2.358017 6.196630
-4.371700 -6.630800 -0.957000
4.318962 -4.609723 3.095581
-6.612258 -3.162925 0.877911
-3.748600 -4.801700 3.895600
-8.435935 4.563897 -0.348909
-8.030125 4.944542 -1.711505
-7.696800 5.621200 -1.025200
-1.242043 7.171973 -3.403657
-1.121268 -5.952031 -2.470268
-4.507400 -6.365300 4.480500
0.379933 -1.928947 -3.545763
-3.789144 -5.353165 -1.089806
-6.792900 -3.257200 3.086300
-2.648200 0.158800 4.343900
-8.091900 -1.007200 3.367600
2.222337 -2.553943 -3.129461
-8.493236 0.472424 3.654811
-7.717000 5.442200 0.455700
-5.231942 2.036921 3.395807
2.350796 -6.958464 0.416235
2.398594 -6.753445 1.495235
2.240208 -5.849883 1.709955
-8.793365 3.628448 3.365990
-8.427345 4.525126 2.935337
-7.279975 4.397053 -1.095024
4.214603 -4.338860 -1.143759
2.016002 3.298221 2.253430
-4.991053 -7.155630 -0.309740
0.550300 -2.972200 5.585800
0.265753 -2.023603 5.165733
-6.208271 -3.103741 0.697950
-2.494476 7.494570 -0.831761
-7.436053 4.389578 -0.401411
0.718231 -3.171079 5.391931
-7.667510 6.141155 -0.281239
3.663800 -1.653000 3.719100
0.639646 -6.524050 1.298024
-1.753203 -4.113966 5.475878
-1.310612 -4.088346 5.820285
-0.997856 -4.749401 -2.966335
0.144821 -2.236047 -3.645930
-6.981074 -2.252269 2.599339
-3.278959 0.189258 4.635316
-7.998399 -0.632496 3.013284
-2.636316 7.635591 -0.651876
2.047394 0.179355 -1.913445
1.305341 -1.833364 -2.841098
-8.465639 5.587445 0.365719
-5.334500 1.834100 3.507300
0.650500 -2.549500 5.658400
4.799173 -5.426000 1.936630
4.979882 -5.994964 1.981316
-6.569992 4.802947 -0.928328
4.183561 -4.637529 -0.410904
-5.009742 6.111921 -2.006427
0.001546 -6.411593 1.187826
2.080400 2.624000 2.018600
-4.311130 -6.575252 -0.400351
0.812591 2.350292 4.171534
-6.685326 -3.922714 1.272345
-7.925900 4.450000 -0.280700
1.151443 -2.470980 5.474888
0.750524 -3.281615 5.448398
-0.849561 -4.309371 -4.057433
0.693868 -1.648890 -4.046573
-2.556629 0.541929 4.542007
-8.053905 -1.269499 2.936390
1.727300 -2.072900 -2.886800
-7.793600 5.461400 0.721000
-5.302179 1.729356 3.246572
-4.780724 -4.318965 -1.418745
-0.845372 -6.085652 1.240490
-6.624106 6.392194 -5.735269
-7.798738 5.273842 -1.565218
4.011633 -4.759084 -0.337295
1.882434 2.655091 1.815168
-4.522929 -6.584185 -0.647383
-3.481100 1.510838 -0.925068
-7.294766 -3.192248 1.386032
-7.656751 4.368688 -0.286768
-3.644139 -5.983160 4.520231
-3.064531 5.884056 -1.634667
5.389714 -2.817095 0.215181
-1.125985 -5.196159 -3.012142
-6.313054 5.615925 -2.388206
-6.442275 5.616003 -1.002648
-2.593101 -0.895266 -3.146356
0.373541 -0.894755 5.014019
0.289209 -1.236867 -4.211557
-9.304894 3.542701 2.685021
-9.177400 3.240600 2.423000
-2.648300 0.568700 4.117300
-8.102900 -0.599400 3.364900
5.667200 -4.469900 2.380100
1.382146 -2.373685 -2.534866
-7.537337 5.526835 0.860903
-5.618097 1.854955 3.910219
-3.919446 -4.665741 -0.933418
-1.617968 -5.728123 3.918034
-6.940028 5.842074 -4.081871
-2.375899 -2.512752 5.613306
-7.836171 4.891924 -1.102819
4.436500 -4.383400 -0.597200
-5.025129 3.010177 -0.392709
-2.045010 -5.597326 5.077505
1.974400 2.596200 2.264600
-5.278088 -6.547308 -0.378420
-6.293159 -3.913070 -0.500550
-7.468913 4.333955 -0.621054
4.201286 -4.769967 2.804716
-3.011200 6.375100 -1.549000
-4.512712 -1.921399 3.261967
-6.439500 5.704000 -4.610500
-2.457762 -6.234860 -2.524371
-1.678624 -4.629983 -3.328871
4.884893 -2.941047 0.037240
4.452067 -3.627964 -0.690834
0.114683 -1.800284 -3.303491
-3.950507 2.683612 1.773601
-2.612855 1.171661 4.785091
-7.869751 -0.526344 3.609833
-7.063621 5.309831 1.290412
-5.124874 2.449065 3.743258
-8.713702 6.232455 -3.233506
-8.361820 7.060161 -3.460362
-2.186500 0.302900 -2.357100
-2.679188 -6.986291 -2.371964
2.352830 2.462005 2.615229
-8.668900 -1.667400 1.248700
-4.747908 -6.514126 0.086544
-4.115325 -6.637041 3.948040
-5.832861 -4.071951 0.930157
-8.268142 4.642426 0.509771
-9.392500 1.875800 1.630100
-4.371707 -0.975308 4.243450
-2.091956 -6.739416 -1.862770
-4.739413 2.626016 -0.285417
-0.705389 -5.063118 -3.593290
-0.002784 -1.669602 -3.559104
-2.963000 2.535700 0.458200
-3.244406 0.652153 4.435626
-8.312050 -0.428532 3.293942
-7.499343 5.372591 1.216082
-5.112576 1.691481 3.606123
-0.267265 -1.434996 4.823660
0.534222 -1.412142 4.929134
-2.953851 -6.317646 2.596793
-3.116805 0.233198 -2.219742
1.788114 2.170567 3.079157
1.751311 -2.790677 5.753693
-8.468231 3.278399 2.990442
-4.783700 -6.637800 0.064300
-9.206615 3.516341 0.773845
4.744100 -3.384300 -0.028300
3.828986 -3.065148 -0.309886
-5.650135 -4.136413 2.194809
4.253600 -0.274900 -0.083100
4.144363 -0.899328 -0.694413
-6.701356 -3.344436 0.403556
-7.800200 5.005600 -0.287900
-4.477705 -1.495204 3.997141
5.535800 -4.751000 2.363400
-2.471188 -6.961021 -2.089718
-4.531217 2.737981 -0.889113
-1.123994 -4.260961 -3.644764
-2.999772 1.252754 -1.780138
-0.141551 -1.720412 -3.273452
-8.035143 -0.516299 2.963024
-8.112809 4.992130 1.529891
-5.292300 2.549500 3.575300
-6.525999 5.457427 -4.710006
1.297984 3.122946 2.641812
-9.333617 3.073786 2.265262
-8.951668 2.567630 1.170235
-9.344135 2.107137 1.426487
0.604140 -6.092360 5.141979
-5.594360 -3.223388 2.553679
1.165335 0.061437 4.450487
0.926399 0.016875 5.135909
-6.631300 -3.917200 0.678000
-7.984221 5.031416 -0.052547
-4.185145 -0.842774 4.361130
5.576300 -4.610300 2.421100
-6.230106 5.824313 -0.030811
-5.839887 -1.253335 -1.522096
-2.285800 -6.494400 -1.966600
-4.400500 2.720900 -0.443100
-1.732163 -4.107133 -3.558158
0.319000 -1.192800 -3.377900
-8.463429 -0.459802 3.539993
1.518856 -1.804595 -3.545040
3.121989 -6.416366 1.355839
-9.699219 2.810871 2.050809
-9.366474 2.826736 1.278855
-1.490887 6.256174 -0.769964
-7.240113 -2.200706 2.341944
1.737400 2.499500 2.750400
-4.177789 -6.745598 2.759376
-5.964300 -3.776600 2.654900
0.031791 2.215246 4.041679
0.277221 2.179901 3.714963
0.149700 1.968500 3.777200
-0.924369 2.358457 2.828152
-6.413995 -3.974959 0.461231
-5.367512 -4.829635 2.773107
-7.195239 6.050408 0.028518
4.394361 0.274147 2.582510
-4.287647 -0.877815 4.161351
-2.531870 -6.451469 -1.818052
-1.022478 -3.595840 -3.065947
3.171488 2.344932 1.133079
2.737970 -5.911335 0.210893
0.318300 -1.052000 -3.352900
1.021800 -1.630700 -3.161700
-0.221100 -0.401400 -3.166300
-5.912288 1.728990 -0.993427
-6.430397 2.755803 -0.989159
-8.498402 5.064060 -0.237378
1.667700 2.456000 2.867900
-3.910483 2.331415 1.069024
-7.577354 5.515135 -3.243333
-7.300763 5.138560 -4.228436
-6.308639 -3.821180 2.627610
-0.061793 -0.736692 -3.229563
-1.510820 -6.343249 5.356219
-6.131383 -3.852397 0.752805
1.479492 0.316250 -2.373246
-7.185804 4.963014 -0.160298
-4.066462 -0.886329 5.285139
-2.522682 -5.401176 -1.293435
-1.522434 6.976922 -2.198343
-1.445456 -3.821805 -3.181189
-4.128010 -6.937085 -1.092735
3.454031 1.775186 1.272182
1.004505 2.532772 0.261169
0.951975 -1.184206 -3.389898
4.534389 -1.174343 -0.576163
-3.959865 -0.135835 -1.700634
-4.783600 -0.292200 -2.205900
2.790884 -2.782127 -1.617821
4.372251 -1.046035 1.558261
-9.109690 1.310568 3.671331
-5.419214 -4.319503 0.580310
-7.372511 5.208731 -3.185194
1.399776 -2.107994 5.898658
1.637601 -2.304626 5.746889
-5.465909 -3.808437 3.647503
0.846800 3.132000 1.564600
3.506150 -0.979357 -2.640434
-1.653115 -5.710901 5.533481
-7.086445 -3.884088 1.877235
3.095350 -0.151923 4.486950
-5.201112 -0.432507 4.232660
-4.404130 -4.435753 4.041518
-4.813181 0.708004 -2.493198
-2.370466 -5.970016 -1.248266
-0.511048 -3.674889 -3.600630
-3.769283 -5.779816 0.042958
2.958600 2.036500 1.347900
-3.874711 2.011901 2.242894
0.741417 -1.502836 -3.455194
0.096119 -1.103249 5.387390
-2.945952 0.718499 -2.018840
4.394822 -1.641159 0.493371
-7.239902 0.724195 -1.390579
1.486070 -6.520009 -1.318862
-6.212100 -5.419600 3.667900
-6.781907 5.996018 -3.706781
-5.526806 -3.933882 2.611899
-6.508140 -3.408823 0.962382
0.648768 -3.931626 6.139812
-4.348500 -0.551300 4.264900
-7.072930 1.037180 -0.684488
-7.763400 6.588700 -2.683100
-1.071100 -3.434800 -3.625000
3.746906 -4.108921 -2.023828
-3.734652 -6.424663 -0.902264
3.887150 2.833627 1.687521
-3.464944 8.044393 -0.581468
-2.585690 2.474112 0.675175
-6.912061 6.883360 -5.920316
3.019153 -2.931834 -1.479632
-3.103071 1.627857 -0.473370
-5.721700 -5.019600 0.711500
-4.900630 -2.044693 -1.819702
-7.186883 0.625397 3.532030
-6.639252 0.960022 4.006529
-3.226516 -6.322096 -0.035929
0.983424 -0.332495 -2.879364
-7.787232 1.312249 0.288100
-8.729409 1.663461 0.434072
-3.991100 -6.613500 0.021600
-6.960041 5.799520 -3.432473
-0.414478 -2.212044 -3.257553
-2.026336 5.999177 0.030402
-6.707263 -3.761454 2.918118
-6.593100 6.802500 -5.906000
-6.494985 -4.088121 1.121572
-8.858900 2.671800 0.227100
5.355273 -1.391242 1.485488
-4.348700 -0.409800 4.265800
-7.391700 1.350400 -0.683700
-2.959399 -2.797528 4.826724
-1.573745 -3.639915 -3.693595
-8.206084 -0.717795 0.699113
-4.984443 -6.844230 0.185138
2.889900 2.083800 1.607300
-2.954900 3.137536 0.363007
-7.184617 6.449327 -5.181547
4.358400 -2.770700 2.598700
-2.974860 0.405060 -2.423954
3.053700 -4.079800 4.051200
-4.444833 0.369995 -2.245157
1.487872 -3.195573 4.971074
3.868600 -2.420300 -1.080800
-7.317708 5.832118 -3.683455
-0.579335 -2.638911 -2.885352
-6.856548 -3.397579 2.931922
3.203730 -3.012135 -1.903354
-6.970100 -3.801400 1.581600
-8.762272 3.425377 0.005242
-4.105655 -0.223926 4.029515
-5.235945 0.393500 -1.712749
-1.266080 -2.497932 -3.817482
2.743577 -2.032932 -1.446654
-4.298267 -6.645023 0.086332
2.593988 2.581820 1.533082
-0.512547 0.611999 4.117824
-8.308300 5.276300 2.753000
-6.735300 7.086100 -5.703100
-5.929866 5.355333 -1.698622
-6.455867 5.006020 -1.998127
2.058048 1.485618 3.481699
-5.746974 -4.261612 -0.803818
-8.012700 0.608000 3.097800
-3.947979 -4.641442 3.730721
-0.847998 -3.394436 -3.551661
-5.751283 -3.836350 3.103394
-7.015800 -3.765300 1.720900
2.485823 -6.033347 3.853680
-8.815300 2.947200 0.227200
-4.348400 -0.127600 4.243400
-3.380306 -2.527953 5.046931
-1.776752 -2.702268 5.790724
-1.299005 -6.147070 2.538700
-9.631934 2.583565 3.116497
-3.787229 -6.431254 1.124446
2.816400 2.121800 1.865100
-0.953306 1.799623 4.466444
-3.651353 1.574577 -1.631235
-2.731696 1.199228 -1.614856
1.456095 2.460056 0.287269
-6.651369 7.579411 -4.874975
-7.089434 -3.868433 -0.152970
-2.885214 6.741930 -0.953245
-4.991909 -0.662615 -2.424842
-4.214121 -0.130899 -1.378925
-7.125055 5.983972 -0.416953
-0.215046 -2.032045 -3.161262
-5.997730 -3.333819 3.857902
-3.082400 2.443000 -0.028100
-6.922278 -4.011131 2.701811
-8.439184 2.936768 0.180862
-4.108838 -2.319737 -1.424922
-7.189400 -6.238900 0.231300
2.398004 -6.723299 2.471385
1.861367 -0.844073 -3.974206
-3.569999 -6.720274 0.761326
2.779700 2.141000 1.993800
-1.199009 1.176493 3.579257
-9.221418 1.874713 0.922997
-2.925061 2.923992 1.846011
-6.951878 5.439287 -0.941232
-6.679348 7.696642 -5.519992
-4.803305 -3.386249 -1.413439
-4.920282 -3.348910 -1.586858
-1.894025 8.995693 -1.724773
-2.315426 8.935966 -1.347875
1.963352 3.141393 0.195758
-4.952134 -4.195528 2.219228
-8.730630 4.782022 2.029033
-3.006016 -2.423868 -2.633811
-1.000228 0.911613 -2.239108
-0.421026 -2.164903 -3.545178
-5.933030 -3.731664 3.466517
4.540750 -1.752529 3.299161
0.739378 0.889438 3.923260
-8.831822 2.011710 0.328277
3.780400 -2.990000 -1.281700
4.171799 -3.607557 -1.482680
-9.181067 4.248287 2.454197
-8.919790 3.776922 2.768214
-6.050742 5.661674 -4.273906
3.365658 -5.378994 -0.781688
-8.594780 0.058075 0.676440
-8.991063 -0.742857 0.729163
-5.533800 -5.424600 -0.639600
-6.190254 -6.361288 -0.866774
-3.512065 -6.724816 0.393521
2.740300 2.156000 2.122100
-1.398280 1.703849 3.613058
-4.469500 -3.192900 -1.593100
-4.369900 -3.191300 -1.606200
-7.044445 8.805504 -5.643861
-7.735537 -2.642698 -0.584401
-4.220475 -3.369170 -1.468125
-5.119448 -2.844153 -2.425997
-6.473726 4.060015 -0.397812
-4.259308 -2.070999 -2.990445
-0.029870 0.520223 -2.136667
-0.275597 -3.041594 -3.622421
-6.127596 -2.895800 3.062568
-8.896339 1.997675 1.194450
-9.043800 1.996600 0.529700
-5.981186 5.351679 1.368315
-5.961025 5.631550 1.853207
-8.903932 2.832727 0.361686
-1.071600 2.781200 2.601000
-0.383703 3.073317 2.985563
-3.668427 -4.469314 4.051156
2.535600 -2.452700 4.722200
-2.530624 0.066079 -1.439540
-2.490663 1.649522 -1.202121
3.423387 -5.266843 -0.948178
-6.859142 4.209525 -2.191368
-7.331000 4.716000 -1.885800
-0.605965 2.567002 -0.335712
-1.938249 -5.727784 -2.748719
-4.506255 -6.848542 0.877460
2.405914 2.405035 1.629361
-1.041407 1.598405 3.493857
-6.230300 5.220200 -1.357900
-6.243700 5.375800 -1.358000
-6.304789 5.145119 -1.475755
-7.982303 6.121364 1.249667
-4.914807 -3.596688 -1.887803
-4.857000 -2.886817 -2.514385
4.203721 0.068636 0.416040
-5.003980 3.498049 2.659544
-4.825658 3.666091 2.259388
1.037458 -0.107921 4.186818
-8.864425 1.710146 3.868800
1.534094 3.126223 0.650924
6.447805 -4.383332 0.881400
-7.641641 7.545095 -5.021314
-7.592209 7.329484 -4.982373
-3.569495 -2.072037 -2.284204
-0.376900 -2.300700 -3.690800
-5.762947 -2.950414 3.314462
2.098208 -5.648713 -1.387550
0.515485 1.862505 3.238356
-8.346541 3.386503 0.381869
-4.158770 -5.391327 4.373041
3.781902 -5.245888 -0.470477
2.911744 -1.388598 -2.323992
-1.661900 -5.783600 -2.759200
-5.047281 -6.223340 2.493505
2.830985 1.884331 1.723744
-0.948900 1.964700 3.724400
-6.856415 7.526045 -6.162776
-4.920276 -3.667691 -1.673606
-3.877201 -2.464689 -1.669045
-7.151314 -2.558503 3.637920
-5.360332 5.096084 1.622954
-9.053058 1.486454 4.185883
1.666071 1.872626 -2.166561
-5.571411 4.598681 1.953033
-5.079883 -7.180512 2.568597
-3.379500 -1.918400 -2.552800
-0.817358 -2.062838 -4.155830
-6.727980 -2.471706 3.735202
1.418100 -0.994100 5.225900
-8.574100 5.179300 2.664800
-8.406638 3.113033 0.111604
-3.455204 -4.272579 4.015293
3.335800 -4.944500 -0.686800
-1.917041 -5.616076 -2.696597
3.340716 1.569902 2.967580
-0.949200 2.102500 3.612400
0.764800 2.858300 -0.254300
-7.113095 8.421105 -6.444095
-4.310749 -2.871157 -0.954848
1.008346 -1.263943 5.580865
4.041220 -1.945629 -0.846278
-6.857700 -3.008700 3.383300
-9.082023 0.517893 4.364450
-5.569082 6.789414 -4.297246
0.240163 3.429367 1.251660
-5.141953 -6.140336 2.538044
-2.701268 -1.487147 -2.350807
0.519826 -2.145967 -3.701593
2.710359 -1.123909 -1.917060
-7.364409 -3.403813 0.666984
-8.532801 -1.765217 2.712218
-8.346400 -1.844500 2.799600
-8.607100 3.770200 0.221100
-3.873025 -4.318240 4.140554
1.084040 1.638559 -2.015459
3.247397 -2.360977 -0.721776
-1.557771 -6.269669 -3.026639
-1.315726 2.398589 3.815951
1.596844 -0.862182 -2.246591
-5.000785 -5.560516 4.054163
2.000197 -2.323186 5.537864
-6.672422 -3.199086 3.489019
-6.793810 5.051389 2.778979
-6.440000 5.187067 2.862229
-8.420391 -2.228316 2.615511
-8.093600 2.949500 -0.494300
-8.446910 2.887806 -0.481507
-8.097300 3.096600 -0.434000
1.305212 -1.844309 -3.049462
-9.035517 0.981334 3.694081
-8.927599 0.781094 3.354119
-7.424979 5.283568 -1.485298
-5.278474 -7.026336 3.106843
-2.685527 -1.626432 -2.822697
1.069876 2.801734 -1.120728
-0.729405 -1.823400 -3.724279
-7.217236 -3.574982 1.098824
0.621781 1.539703 3.412720
1.005682 1.427224 3.681610
1.296982 1.508269 3.811839
-8.723973 -2.227181 3.012521
-8.880230 4.023716 0.675068
1.180900 -1.531400 5.407000
-3.749600 -4.086600 4.028300
1.818612 -1.744376 5.965972
-2.118689 -5.181150 -2.949572
-6.314000 5.835200 -4.259800
0.093271 2.713674 2.537627
-6.891800 -2.824600 3.568200
-6.436900 5.531400 0.767700
-8.693156 -1.625604 2.821803
5.336743 -4.515372 2.534159
1.723000 -1.651000 -2.858200
-8.698100 1.237100 4.266600
-0.232833 1.383680 -2.409642
-3.229200 -6.418100 2.885600
-1.676238 -1.252572 5.728243
-6.676507 5.072507 -0.960860
-5.476618 -6.475032 3.256623
-2.741440 -2.118150 -2.458645
-0.943784 -0.880281 -4.145755
-9.759441 2.165740 2.751981
-9.011852 3.378934 1.745352
-7.513400 -3.309100 1.572300
3.809134 -4.210943 3.166950
-5.854434 6.247597 -2.468241
-8.003312 4.258884 0.531960
-3.982659 -4.110947 4.068327
-0.581160 3.262912 1.460000
-1.717673 -4.580639 -3.119719
-6.832496 5.414217 -3.863386
4.372000 -1.536000 -0.379800
-6.578622 -1.925655 3.508802
-2.480401 1.556526 3.589836
1.890028 -1.632865 -2.774008
-9.015863 1.001136 3.545490
1.037350 -1.173788 5.049764
-5.311469 -6.168095 3.741651
-0.816936 -1.429977 -3.970242
-4.291479 -6.567178 0.666339
-7.427351 -3.131777 1.530385
2.465288 -5.409057 4.611089
-3.757067 7.080829 -0.600598
-3.072437 -3.375525 4.679520
-3.324717 -4.229686 -1.222888
2.116922 -1.591994 5.563530
-1.211295 -4.870380 -3.081142
-6.308486 6.166616 -4.495621
1.749336 2.891236 2.884037
1.530600 2.841200 0.249000
-7.087572 -2.500078 4.271074
-6.475300 6.337500 -2.147300
-2.954443 1.173202 4.295278
-5.848900 -2.524200 4.203400
-6.092214 -1.905517 3.432963
-8.491710 1.404164 4.003125
-5.310900 2.690200 3.550100
-0.701121 2.623685 1.658311
-5.076421 -6.994420 2.530368
-4.332841 7.136243 0.318098
-0.382300 -1.454800 -3.724300
-1.647818 1.861325 -0.454345
-5.048183 -7.122679 0.784464
3.097227 1.739191 2.968735
-8.944820 2.422528 -1.520269
-7.467091 -2.821422 1.828299
0.876683 1.531039 3.877914
-4.964600 3.859900 1.739600
-1.571613 2.610057 2.421555
-4.144769 -3.472658 4.342750
-6.991100 0.657000 -1.242900
-7.373418 0.845911 -0.780963
-1.668100 -4.891200 -3.151800
-4.378600 2.662300 -0.583800
3.583335 0.903730 0.954941
-7.106670 -2.330404 3.827515
-6.201362 5.434195 0.416349
-3.251061 2.273396 3.735554
-7.907203 0.582707 2.769789
-5.848600 -2.235100 4.318400
-4.957870 3.413104 1.781467
-7.694419 5.496670 3.543312
-5.134202 2.926136 3.677059
-0.195098 3.854591 1.834621
-6.506226 1.554382 -0.789602
-0.382700 -1.318500 -3.662900
-5.623299 -6.517444 0.480184
-6.516292 6.168480 -5.513396
-7.691331 -3.074925 2.433152
-5.569232 5.252146 1.141438
-3.981170 -3.769512 4.207387
-6.799261 -5.912217 3.880020
-5.178100 3.853700 2.339400
-0.988313 7.436014 -2.203080
-3.746709 2.021239 -1.096121
3.262592 1.246622 0.157074
-6.910005 5.831886 -5.148214
-6.954046 -3.078820 3.779438
-2.429498 0.842277 3.109529
-8.181973 -0.358138 4.157966
-6.327881 -2.410792 4.302664
4.728847 -3.480197 -0.490725
-4.448259 -3.755641 3.234502
-4.955018 -2.379755 4.400251
0.017000 3.125800 1.833900
3.096200 -0.464300 -1.692900
3.833700 -0.498934 -0.301283
-1.399812 -1.796380 -3.346752
-5.393318 -6.770725 0.549834
-0.971030 3.006001 2.434325
-6.745600 6.520000 -5.599000
-7.397994 -3.170221 2.021816
-6.594678 7.181761 -2.403224
-5.067800 4.163700 1.738200
-4.506847 -3.764582 3.987897
-5.606608 4.456948 2.828201
-3.733483 3.547323 -0.535798
3.309193 0.836800 0.250035
-2.241859 1.312777 3.262522
-8.868712 0.705446 3.743359
-5.631450 -2.461473 4.317147
0.644919 3.092162 1.086282
-5.225200 -4.338300 2.454100
-0.473802 2.236148 -1.343735
-0.428300 2.419800 -0.969800
0.245625 -0.982226 -3.586334
-5.041114 -6.082181 0.290375
-7.682240 -2.995275 2.576653
-6.827826 6.453201 -1.123012
-4.041780 -3.519164 4.116214
-8.279847 4.043320 4.421171
-8.242721 4.061834 5.058081
-5.271400 4.162500 2.341500
-5.756700 -5.055800 0.671400
-2.779361 -5.756763 -1.475520
-4.257537 2.302845 -1.589114
3.046960 1.080220 1.458601
0.518874 2.109979 -2.463929
-2.306202 1.521535 3.485913
-6.040215 -0.812174 3.592181
-2.480400 -2.623700 4.752600
0.527801 -1.216343 6.041045
0.931800 -0.733500 -3.014000
0.836900 -0.711500 -3.037700
-8.510389 3.197749 3.550015
-5.305863 -7.043802 0.577772
1.025771 -2.340997 5.533151
-7.716400 -2.949800 2.276600
-5.303355 -3.753829 2.049792
-6.963834 -3.650529 2.509353
-6.534277 5.910957 -2.072910
-4.313052 -2.638611 3.995950
-5.288200 4.315800 2.340700
-2.432000 -6.126600 -1.401300
-0.239516 1.330281 -1.450664
-4.231082 2.099929 -0.885844
-6.128650 -5.762084 3.620760
3.583500 1.315000 1.151600
0.526827 1.950312 -1.542686
-4.151353 -0.025391 -2.589709
-4.998606 0.212578 -2.219294
-6.258530 -1.830242 4.751829
-6.864569 3.620848 -0.673820
-5.135846 -6.861310 1.136426
-7.742900 -2.877400 2.384200
-3.965901 -0.916598 -1.465343
-6.488710 5.208251 -1.376063
-9.225000 2.560500 4.025400
3.314602 -1.250453 -1.669759
-4.278700 -1.447400 -2.147200
4.394555 -0.041804 1.588908
-3.727967 -3.390663 4.668330
-8.738074 3.053644 4.211222
0.494500 -6.432200 4.561200
-0.025589 -6.297696 4.756190
0.480422 -6.105431 4.382061
-4.941193 4.555763 2.774530
-1.846380 -6.128545 2.906084
-2.683070 -6.318964 -0.842086
-9.069949 0.979045 2.580442
-7.839148 0.864414 2.514172
-5.001704 2.184909 -0.743647
-6.495900 6.038100 -1.578900
3.631478 1.815454 0.977413
-4.505534 0.290691 -1.956026
4.681866 -2.746981 2.609308
-2.659022 2.903821 0.479026
-4.400870 -3.683878 4.191329
-4.193994 -3.273391 4.196859
0.217600 2.934000 2.628500
0.165521 2.496015 2.354579
-7.369605 1.210279 4.723141
-4.716926 -6.718338 1.802471
-7.530200 5.500400 0.375300
-7.261168 6.514340 -3.260912
-7.745740 -3.063797 2.747140
-7.046951 6.688627 -1.613522
-3.738980 -3.253553 4.596122
-4.989249 6.116252 -0.116280
-4.828116 6.560975 0.422701
-5.344700 4.622800 2.340800
-10.216140 4.868286 2.575130
-6.256811 6.453955 -4.261236
-2.477588 -6.408065 -0.298803
-8.629234 1.006572 3.406591
-8.407789 1.108308 2.893687
-4.424400 1.807787 -1.296567
-1.890442 -3.226068 -3.821224
1.801200 -2.453700 5.245400
-5.529064 5.979285 -0.546191
2.879727 -5.407604 1.563856
-5.174832 -6.727901 1.554480
-7.886152 6.001561 -3.218156
-7.633677 -3.010376 2.559470
-6.225170 6.462450 -1.552912
-5.005465 -4.633656 2.516838
-4.301696 -5.173808 2.318778
-1.902277 -2.419262 4.347989
-2.751310 -0.709653 3.722748
-3.871401 -3.209868 4.160440
-6.361696 -6.356429 3.056297
-5.553394 6.612244 -0.098742
1.752820 -5.607933 4.099318
-5.329800 4.777400 2.340800
-4.062095 -0.147470 3.735968
-2.654700 -6.154300 -0.863000
-4.253599 2.251247 -1.296595
-1.074000 -2.863500 -3.752800
-6.959473 6.877877 -3.175251
-4.683100 -0.436300 -2.201300
-5.564100 -5.632700 2.168800
2.140667 -5.731858 4.085918
2.514000 -6.499100 1.963400
-6.235800 6.469200 -4.259300
-4.577264 -6.917212 1.010193
-7.414643 6.168746 -4.124005
-8.155997 -2.377658 3.061933
4.132800 -3.024600 2.975600
-7.709400 5.416400 -1.189700
-7.087900 -3.654100 1.961800
4.947248 -2.542686 1.445053
-3.494211 -2.447886 3.591749
-4.829976 6.229804 0.062869
2.311292 -5.233168 3.783350
-5.227500 5.343574 2.250835
-4.601332 0.176141 4.512221
-9.067500 3.650000 2.019500
-9.156550 3.812700 2.004516
-3.031485 -6.249119 -0.432836
-6.358004 -6.384285 3.789970
-6.781654 3.147842 4.658615
-4.003167 1.824845 -1.271339
-1.076400 -2.718400 -3.773400
4.215826 0.566749 0.903727
1.080161 -1.034751 -3.287466
-8.043634 3.221302 4.630030
2.485917 -5.440958 3.533167
0.638400 -6.537400 4.145800
0.605700 -6.533300 3.955600
-8.982963 2.810574 2.465184
-7.148900 2.982300 5.114200
-6.018280 -6.467272 1.798954
-8.832973 -1.107643 1.561012
-7.583989 6.105806 -3.308633
-7.868632 -1.947552 3.233966
-0.610600 -6.417100 4.856000
-1.510950 7.678758 -1.339134
-2.168500 8.015800 -1.387900
-7.229006 -3.594070 2.367079
5.035600 -2.653900 1.211800
1.651785 -6.833545 2.089361
-4.729333 0.100362 4.214897
-3.102253 -6.043112 -0.593559
-7.199800 3.265100 5.042000
-4.363800 1.786000 -1.468100
-1.184352 -3.416931 -3.351830
3.391086 -4.633701 3.152486
-5.287361 5.096031 0.011191
-5.535087 3.793399 1.134677
-2.445337 -6.082282 1.175989
4.812953 -3.299180 2.723577
2.082425 -5.604313 3.731357
2.678042 -3.166111 -2.184403
-6.634967 4.283223 0.012477
-5.581900 -6.636000 2.051500
-6.726275 6.829136 -3.808562
-7.594560 -2.306543 3.508781
-7.428988 -3.620414 2.109567
5.183697 -2.541722 1.063080
-8.773959 3.344343 4.288229
-2.767476 2.919090 2.435062
-3.431691 1.502475 2.068004
2.699381 -6.135832 1.889846
-4.175778 0.660911 4.403137
-7.293700 2.965500 -0.843700
-6.934073 3.003684 -0.364433
-3.452192 -5.535666 -0.426265
-7.223000 3.406300 5.009600
-7.995793 4.609256 -2.147613
-4.375955 1.044926 -1.139288
-1.279455 -1.470959 -3.938258
-6.218313 3.201433 -0.587915
-5.458396 -5.880441 1.878747
4.024506 -3.489212 2.904556
4.290823 -1.839252 3.230384
3.812632 -2.723891 3.447072
-1.343449 -6.443476 -0.509892
3.378937 -2.149079 3.564136
-2.539962 -0.426013 4.053380
-5.149911 5.038624 -0.756538
4.627845 -1.014626 1.834803
-5.600977 -6.616932 3.247327
-4.331737 4.806588 -0.610757
-8.830117 1.846244 1.768118
-6.870353 6.220124 -3.075933
2.325500 -3.544900 4.585300
0.888242 -1.606247 5.766488
0.034055 -1.107959 5.678711
-1.785728 1.948962 -1.573813
-1.316996 1.556387 -1.899341
-2.634244 0.501089 -1.362660
-7.156100 -3.412400 2.265600
4.825246 -2.468951 0.717708
-3.589148 1.994108 2.093259
-2.590926 2.107381 2.040811
-4.761300 -4.373400 -1.078400
-4.175993 -5.464654 -0.013663
2.175985 -6.497392 1.963441
-4.349300 0.570300 4.086700
-3.201559 -5.108787 5.281955
-3.223360 -6.318724 0.477648
-4.340272 -4.548752 3.653337
-5.265374 -4.314340 4.195556
-7.577800 4.997800 -1.886800
-4.482495 1.041078 -1.691872
-4.921293 -5.096319 2.306880
-2.078065 -6.308853 -1.505459
-2.128000 -6.129600 -1.338300
2.401600 -3.411200 4.520500
3.880955 -0.313870 2.855562
1.302745 3.267055 -0.492236
-7.467050 2.068909 5.294939
-6.808924 2.759867 5.027449
-6.527673 2.268730 5.243483
-2.401912 2.423753 1.253242
-1.839900 2.810500 1.449600
-2.079132 2.675185 1.466351
4.491081 -0.932396 -0.296056
-2.384389 -0.711417 3.759224
-3.173307 -0.196104 4.676985
-8.545234 -1.964623 2.268795
1.820486 -3.580764 4.783967
-7.325984 3.032030 -0.745638
-3.974885 0.545287 -2.120267
-5.715393 -6.462828 2.393732
-7.867318 7.296930 -3.594992
-5.934578 -2.352201 3.673551
-8.948492 3.457995 3.084116
-10.051243 4.042624 3.049875
-9.847398 2.488243 4.247492
4.192229 -1.950333 3.182630
3.023345 0.487919 -1.058371
-5.412773 -5.512468 5.325466
-7.156494 -2.446151 2.306883
5.041904 -3.050019 1.866109
-3.084769 6.999519 -0.331047
-5.265124 1.933608 2.676446
2.283200 -6.425600 2.577100
-4.316883 1.373726 4.417687
-3.003700 -6.166700 -0.001400
-2.643249 -4.428514 3.293136
-7.707694 5.699631 -1.589440
-4.424400 1.363700 -1.623200
2.413321 2.361102 3.079554
-7.289900 0.787300 -1.024100
-3.229816 2.462777 1.042227
-5.980816 -6.905922 3.157868
-8.225390 1.129268 2.263920
-1.524029 -5.296179 3.964024
-7.014418 7.233100 -3.782693
-6.382700 -0.897100 -1.883100
-6.463307 -2.451066 3.911700
-9.177400 2.019700 4.349700
-7.211500 -3.268500 2.481900
4.151797 -2.858028 1.399244
-4.961490 1.700077 3.272611
-5.024714 -2.215850 -2.136282
1.327900 -6.562000 2.142400
-6.221900 6.467100 -5.058900
-4.067064 0.527683 3.808970
-3.079800 -6.183200 0.179600
-7.919000 5.335463 -2.019266
-4.531883 1.155970 -1.807779
2.731687 2.191307 2.217994
3.327380 0.299808 -2.026695
4.546533 -2.419387 -0.255874
-2.250857 1.981727 2.900553
-3.065251 1.838483 3.178891
2.549336 -6.225956 2.800076
-5.813100 -6.579000 2.658700
0.781062 2.913993 0.791966
-8.678128 0.437229 2.374777
-9.110825 1.517063 2.622129
-2.133109 -5.227314 5.274768
-7.542193 0.420884 -0.794017
-1.219779 6.527447 -1.568782
-5.747076 -2.414297 3.630129
-9.180500 2.154100 4.348500
-7.235002 -2.889407 3.024328
4.852991 -2.322292 1.829170
-8.813250 -1.537646 3.548461
-4.900600 2.254900 3.076900
-5.574596 5.982297 -5.992732
-4.021830 1.061379 4.240602
-2.548000 -5.650700 5.316000
-3.401919 -6.390132 0.758714
-7.462462 5.262164 -1.649988
2.054400 -6.423600 -0.368300
2.784183 2.917215 3.304023
-0.058392 0.725306 -1.850443
4.515900 -3.292600 0.084500
4.254097 -2.064186 1.945951
4.107261 -2.475517 1.858948
-3.212382 2.095172 1.644855
-3.059900 2.195300 2.486600
-8.804630 2.599175 2.630035
-9.495464 3.426266 1.610360
-8.518413 -2.791147 -1.134697
-7.009707 -2.441396 0.160803
-7.165342 -2.197399 -1.171676
-3.244303 -6.374593 0.810837
4.527500 -0.820900 0.417700
-4.492486 5.515667 -0.543321
-1.449700 -5.140100 4.788000
1.927411 1.576802 3.283670
-8.979765 1.606075 4.126668
2.866984 -3.582817 3.611191
-4.457934 -5.058344 0.967770
-7.578664 -2.375187 2.330605
4.805965 -2.866886 1.960306
-8.581735 -1.083550 3.536698
-6.716610 4.888076 -4.885153
-4.423189 2.172092 2.917551
-8.423819 4.786375 0.581223
-4.349500 1.117600 3.706700
-6.583238 5.883125 -5.442131
-3.525800 -6.635700 1.040400
-7.750200 -2.148900 3.338000
-7.819901 5.179915 -1.383932
-7.692714 8.011889 -5.813069
-0.662128 -6.398984 -2.552204
-7.867700 6.863100 -3.434200
-7.880900 6.805200 -3.397100
2.720849 -4.989654 4.278338
3.860112 -1.408553 -0.722051
-0.603200 2.739300 2.912500
-2.886200 -6.460300 1.735000
-1.449400 -4.990600 4.873300
-6.460000 -5.670100 3.471500
-2.555039 -5.551507 0.079687
-7.182365 -3.440126 2.867622
4.778174 -2.314045 2.449557
-8.327254 -1.240636 2.051182
-4.784220 2.028847 3.026135
-7.888278 3.867162 0.515194
-4.184756 1.924991 3.262101
5.349774 -5.861035 -0.961691
-3.546039 -6.974399 1.024454
-2.002937 -6.410583 2.555020
-7.676462 4.706675 -2.010916
3.349284 -3.102768 3.264981
2.187575 -1.494007 -2.913431
-0.527800 -6.899100 3.265736
-5.750000 -4.102100 2.157000
0.226100 3.130900 0.622500
-5.477800 -6.551600 3.754500
-1.446300 -4.838500 4.951300
3.893044 0.307657 -1.065130
4.043568 -0.505062 -0.899593
-5.953931 -6.529898 2.790838
-8.129695 -3.945805 2.836353
4.417547 -3.007160 2.061460
-8.931207 -0.755206 3.189035
-8.615124 4.433540 0.346392
-5.193188 1.925277 3.000426
-7.461440 -0.968880 -2.219703
4.933028 -5.384206 -0.340376
-3.585100 -6.496700 1.264300
-7.794100 5.830500 -1.892300
-1.668300 -4.742800 -3.227700
1.172210 1.324022 -1.914556
0.707416 2.337497 0.292387
1.293656 2.524796 -0.749547
0.959282 0.058944 -1.823318
-8.097780 -1.949890 -0.239614
-5.877495 3.090675 4.317615
0.748600 -0.574900 -2.979000
-5.541100 -6.550500 3.913800
-1.704460 -4.696492 4.848235
1.587900 2.398600 2.985000
2.883779 -0.946798 -1.700879
3.222000 0.841485 3.781126
1.120179 1.189659 -1.868653
-3.391788 7.331077 -1.619081
-7.254491 -2.854846 3.780209
5.129554 -3.358473 1.761079
-8.508294 -1.205499 3.403797
-9.171929 4.586980 0.601763
-4.350100 1.525700 3.351700
3.696288 -5.133477 -0.314361
-5.220900 -4.822000 2.463700
-7.478388 6.175247 -1.380837
-1.540589 -4.579978 -3.097642
3.669700 0.396800 -0.783300
3.064369 -0.717597 -1.837976
1.012200 0.870500 -1.950800
-5.040628 4.673272 1.900017
-1.512600 -6.174800 1.758400
-5.388800 3.114400 3.436100
-5.018400 -6.746064 4.378055
1.823899 2.465523 3.222540
4.982080 -2.349371 2.908508
-7.406744 -3.321872 3.523015
-4.009700 5.359500 0.504300
-8.548338 -0.760410 2.522463
-8.236800 4.733100 0.217500
1.992584 -6.496316 4.075785
-5.475660 4.009622 2.260480
-4.350500 1.662900 3.237400
-7.390878 -1.597976 3.445545
4.593421 -4.639870 -0.458308
5.154747 -6.184649 1.659151
-1.968900 -4.242107 -3.467863
-6.746300 6.661800 -5.599800
-5.964781 4.987563 -3.361258
-1.326749 2.653457 2.255926
3.151650 -5.441485 0.723838
-5.357957 3.230100 3.454381
-5.965143 5.713917 -1.077332
-5.611537 -6.346069 4.826917
1.452000 2.309600 3.222200
3.922135 0.323865 2.852212
0.166942 -6.141484 -0.523323
-9.004621 0.576352 1.808711
-6.189962 6.716555 -5.826538
-6.961588 -2.869267 2.798151
-3.979049 5.150917 0.414624
-8.022688 -1.525434 2.881334
2.978053 -4.304316 4.352299
-5.217000 4.467800 1.736600
-4.350100 1.796700 3.095600
-7.782238 4.350118 4.490225
-7.610742 4.503848 4.419333
-8.377194 4.429298 4.594261
4.334900 -4.800300 -0.665800
3.876823 -5.511167 2.028720
-3.350230 -4.746666 -1.849347
-3.578488 -5.054500 -1.292873
-1.462807 7.906479 -1.839692
-1.895600 8.707900 -1.955000
-2.138465 -5.105006 -3.804678
-6.770630 6.702361 -2.884115
-6.750800 6.782700 -2.679300
4.517241 -1.666729 3.195523
-5.609586 3.225353 3.526573
-5.728100 -6.544600 4.381300
-2.521528 -2.087144 -3.331049
-2.877658 -2.270331 -4.032573
-0.504939 -6.035143 0.404358
-6.129942 7.069444 -5.253875
0.281800 2.654100 -0.629600
-2.848568 -6.352485 2.732006
-8.192566 -3.182129 3.154014
-4.110764 5.727600 0.769544
-8.430200 -0.611800 2.987400
-2.654366 8.015191 -0.723482
-3.477515 7.544571 -0.422808
0.596241 -7.011497 4.152069
-0.165020 -6.177235 3.816471
-5.201700 4.625700 1.741000
-4.496793 1.916623 3.019250
-8.930767 3.103396 4.597692
4.381948 -5.685743 2.315045
-1.670500 -4.151200 -3.518500
0.045734 3.177694 -0.603117
-5.955188 2.946548 -0.477957
-5.524574 -1.513772 4.845902
-5.509800 3.533000 3.262400
3.337592 -6.623079 -0.018454
-5.766900 -6.498400 4.503400
-3.576216 0.692977 -2.576202
0.262437 -6.144437 0.360366
-7.153282 7.642794 -5.333883
-7.968307 -2.325373 3.680259
-4.086900 5.804200 0.401700
-8.434200 -0.476300 2.986800
6.119206 -4.736422 1.848472
1.940965 -5.767057 0.396368
-5.481937 5.066082 0.977538
-5.945111 5.271046 4.172902
2.004122 0.641249 -2.114842
1.658649 0.087544 -1.890652
-1.908133 -4.016685 -3.531988
-5.549574 8.039069 -6.635245
-0.262350 -2.038791 5.312230
-2.411474 1.482788 -1.685381
3.525900 1.379500 1.415200
2.812900 1.011100 3.558400
1.272886 0.590281 -2.006551
0.778774 0.651249 -1.762195
-6.477130 -1.450362 4.161887
-1.328286 -7.199650 4.093194
-1.904253 -5.950019 5.647522
-1.693537 -6.489247 4.286860
-5.184386 3.774315 2.735374
-0.161495 -6.761028 0.171052
4.178562 -0.320019 -0.555689
0.445988 2.698320 -0.048694
-7.103105 7.100103 -5.711645
-4.134400 5.941100 0.325600
-8.634321 -0.360909 3.563452
5.736015 -3.199491 2.755485
-4.242906 -2.634092 -1.787620
2.624443 -6.664175 0.434167
-5.255954 -4.055645 2.725011
-5.266800 -4.202200 2.355000
-2.477799 -4.160713 -3.356899
-4.559064 3.139349 0.174478
-7.420125 5.231906 -2.047700
-9.621544 3.643493 2.315753
2.889275 0.633902 1.750723
-5.963901 -1.801179 4.641331
-1.558420 3.309455 1.362880
-0.852400 3.032600 1.085700
-5.820388 3.780979 2.711262
0.983861 -6.321282 4.967040
-1.413640 9.246103 -2.009149
1.027400 -0.753400 -2.993200
-6.876100 7.368000 -5.603000
-0.528876 2.386376 -0.825448
-0.072474 3.020357 -0.127688
-4.111446 -3.883409 -0.854076
3.029204 1.208443 3.170752
-4.161560 6.185623 -0.519056
0.176818 2.545337 2.342346
-8.298037 -0.004188 2.828778
0.651743 -6.250247 -2.397556
1.644806 -6.778293 -2.135912
-4.113377 -1.139629 -2.437593
3.267300 -6.110200 2.493700
1.610314 -1.224417 5.672217
-6.428330 4.999763 -1.719535
-4.383391 -5.679426 -1.899473
4.058313 2.075406 1.618559
-7.085918 6.555738 -1.656283
-5.601758 -1.275332 4.538315
-7.757078 5.490807 1.207749
-5.591542 4.487992 2.756007
-7.050400 -1.123400 4.185600
-6.494246 -0.999685 4.450383
-7.306400 4.829700 -2.713700
-4.581478 -5.866936 -1.078752
4.618857 -2.858790 -0.062119
-8.856830 5.181990 0.935610
-8.725855 4.660982 0.580709
0.792835 -5.916267 3.270390
-7.509600 5.131300 -2.587900
-7.071493 7.725638 -5.453616
-4.104400 6.236800 0.371500
-7.492176 5.907743 0.620413
-8.400400 -0.073000 2.940300
-1.087569 2.925872 1.271710
-3.245844 -2.638148 3.833981
-4.760203 6.654448 -0.628527
-2.818892 6.274789 -1.062486
1.808345 -6.311938 2.395254
0.882412 -6.491784 2.581422
2.789263 0.992178 -0.321843
-0.451161 -5.655651 0.562953
3.087437 1.242779 2.425050
-6.831053 7.516222 -6.455327
-6.653413 6.675226 -5.833201
-6.086387 -1.642724 5.270230
-5.564570 3.656576 2.821452
-1.640989 -5.870525 -1.341055
-0.634268 -5.933368 -2.158142
-0.753741 -6.258294 -1.668885
3.346597 1.875914 -0.574987
-0.376979 -5.749126 0.625589
-7.047227 5.240694 -3.186688
-3.456400 1.397100 -1.661900
3.549900 -5.307700 3.094400
-7.173037 7.520878 -6.224267
-8.289463 -0.098263 2.740956
4.117883 -5.670848 2.697495
-3.553703 -2.526011 3.743395
-4.271521 6.804744 -0.423923
-2.562472 -2.146973 -3.364507
3.182609 1.796704 1.656745
-3.148100 -4.537700 3.702300
-6.219771 -0.829511 4.346030
-5.309112 4.770500 3.353570
-6.884712 5.954880 -5.127001
0.314438 -6.582102 -0.468951
0.747239 -6.717326 -0.586611
-6.993556 7.517585 -6.043170
-7.280892 5.799384 -2.759027
-6.911732 7.590316 -5.366447
-7.866500 -2.358300 2.965600
-8.534695 -0.333908 2.932167
3.337519 -5.376631 2.604304
-4.135804 -1.573841 4.263752
-2.593742 -7.375804 4.284889
-9.453172 -0.137608 0.852863
2.352164 -6.843812 0.666996
-2.508300 -6.200400 1.758700
-1.078100 -2.293400 -3.812900
3.765262 1.865484 2.522676
2.719718 -6.280581 3.319613
-0.606079 3.106324 2.286557
-0.819279 2.236211 2.368055
-5.610000 4.389000 3.120600
-3.491876 -6.586240 4.484487
-5.643274 0.358808 -1.845561
-6.947715 5.426911 -2.626440
2.668600 -0.363200 -2.001900
-2.077282 -0.382915 3.480372
-6.601403 8.187403 -5.993384
-7.412148 -2.140613 3.332754
-8.221996 0.424538 2.980869
-3.579732 -0.417619 -2.200280
-3.551942 -1.292839 4.287052
-2.866826 -6.558592 2.356556
-6.430240 -1.043360 -2.172841
-2.338200 7.717100 -1.287800
1.047904 1.497585 -2.308721
-1.924482 -6.147679 -0.824123
3.282739 -0.734105 -1.368206
-1.078300 -2.154900 -3.791300
2.005130 -6.052248 -2.384160
2.366155 1.569438 2.760217
-1.057263 -6.493189 -1.386974
-2.022157 -5.760738 -1.621629
2.209879 -6.760759 1.512240
-5.224871 4.291353 3.266198
-2.187400 7.866700 -1.417800
-4.092343 3.727002 0.076701
-6.658760 5.697031 -2.037495
-2.698810 0.725938 5.002288
-7.224398 7.685150 -4.991256
-7.665557 -2.385189 3.816265
-8.469190 1.014885 3.915482
1.299555 1.801421 4.064977
-4.004810 -2.886814 -1.706815
-3.397097 -1.374754 4.390942
-5.285048 0.333171 -1.986824
3.016852 -2.213337 -1.993990
2.661805 -2.123755 -1.639782
-1.002546 -1.586638 -4.108481
3.431253 -0.895051 -0.512482
3.571032 -2.070098 -2.928496
5.140497 -5.571623 2.343403
4.629016 -5.681774 1.934360
-5.724690 4.555840 2.968062
-6.332094 7.551488 -5.918837
-5.271483 0.160116 -2.554224
-5.502509 -4.270194 0.129851
-5.714559 -5.257954 -0.100537
-7.715924 5.729894 -2.375546
-0.454422 6.840407 -2.260258
-0.249000 1.279900 4.199600
1.025771 -5.339335 4.060768
-3.894231 -1.619757 4.230327
-5.668375 -0.158222 -1.253179
-6.167428 0.238474 -1.866838
-5.623881 0.539394 -1.989272
-2.833185 9.053501 -1.048712
-1.047003 -2.349253 -4.133340
3.094306 -6.804815 3.043223
2.541022 1.085766 3.814259
-1.935081 -5.760191 0.194120
-4.985400 -0.003300 -2.188900
-4.108068 5.996932 -1.348969
-0.828155 -0.140429 -2.849642
-7.592898 6.176573 -1.971438
-5.033872 -6.640612 2.979951
-1.205029 7.210887 -2.292436
-6.402396 -0.996278 -1.072155
-6.157950 -2.013497 -2.329437
-5.393681 -4.344772 4.190328
-1.401329 -6.120132 5.235186
-1.672453 -6.134737 5.832666
-3.979322 -1.905380 4.302619
-7.638917 0.002499 3.907487
1.217756 -6.622976 2.337648
-4.049311 -0.246021 -1.751635
1.488500 -6.219700 4.412900
-8.479677 -1.921190 1.139143
-0.518827 -2.070347 -4.105800
0.479689 0.589395 -2.200966
2.765792 -6.862304 2.905563
-4.986300 0.138500 -2.158400
-6.061736 -6.107156 4.901520
-2.074200 1.001400 -2.051200
-9.499366 1.907941 0.748348
-0.660809 0.210684 4.619989
-7.964505 6.744075 -2.022882
-3.870132 1.278668 -2.577993
-5.344675 -6.665748 2.836015
-6.821430 6.268602 -4.917454
3.062100 -2.628900 -2.075900
0.825767 -2.008815 5.152518
-9.728825 2.416738 4.572344
-2.339829 -5.966064 4.853722
6.093349 -4.018036 1.078925
-4.060884 -1.251704 4.372574
-3.569623 1.956666 3.027567
2.510541 -6.137661 3.327694
-8.008998 1.258683 3.769557
-0.876167 -0.975594 -3.604832
0.642002 -6.259027 -0.623229
-2.868506 1.565803 -2.020168
-1.662590 0.612563 -2.541334
1.584623 -1.206272 5.441569
-6.947324 -0.226660 3.820654
-1.745570 -4.080027 5.330885
5.204601 -3.800152 0.516535
-0.443000 0.020400 4.799800
4.721618 -4.768836 3.747590
-1.512773 0.978447 -1.965882
-5.765935 -5.734753 3.147451
-6.962794 6.147729 -5.582490
-4.674300 -2.323500 -1.822900
-5.947925 5.134718 2.715038
-3.749874 -1.650391 4.318565
-4.899900 2.685400 3.089000
3.146948 -2.009372 -1.999907
-3.393909 2.129898 3.090781
2.062897 -6.270861 3.708320
3.184657 -6.072603 3.075845
-7.045058 6.177979 -5.375782
4.069088 0.425683 -0.241488
4.031276 0.320001 0.686905
3.759719 0.111258 -0.646804
3.725400 0.970100 2.203900
3.576100 -3.853600 -1.279300
-1.973248 6.866461 -1.744245
-2.429744 -4.645118 -2.744812
-6.056036 -6.814588 3.507236
-6.796015 5.801839 -5.373827
-9.327317 2.829709 4.366562
-3.749800 -1.111800 4.337400
-4.906705 2.562024 2.969592
-3.430422 1.259996 2.851565
2.790096 -5.480440 1.911233
-3.291432 -6.569095 1.721715
-4.002685 2.899791 0.505991
2.935615 -6.886784 3.167930
-7.440414 7.857374 -4.912668
-6.801500 7.731200 -4.997600
-6.956051 6.228974 -1.258598
1.592688 -6.763561 1.338176
1.312700 2.053800 3.498200
-7.965320 -2.120034 -1.384053
-1.745405 7.212954 -1.630675
-2.496300 -3.688000 -3.245400
-5.447250 -6.636810 3.068915
-1.882011 -4.284127 5.342352
1.001227 -6.658187 3.699975
-9.427155 3.097051 4.487854
-5.345632 -3.293835 3.190564
-3.355335 -0.924711 4.077990
-9.060867 4.727869 2.332531
-9.459609 4.864157 2.736500
-9.208057 4.902730 2.878228
-5.042645 2.865579 2.388629
2.891770 -5.584883 -0.036605
5.377036 -4.465067 1.166875
5.350048 -4.034680 1.238134
-4.908954 0.758420 -2.674933
-4.610773 0.251886 -1.469139
-9.728310 2.373518 1.800729
-6.113841 5.492768 3.305981
-1.375425 1.200496 -2.040076
-7.936330 -1.462040 -0.404534
-1.955700 6.894146 -2.198364
-5.556760 1.084453 -1.828305
-6.191900 -6.561800 3.610900
-5.564556 -5.847202 -0.543762
-7.004038 4.927061 2.824115
-1.097959 0.059523 4.811887
-2.511800 6.391302 -1.248069
-2.811000 6.376800 -1.574200
-4.333315 -0.516519 4.170105
-4.995295 3.724331 3.169041
-7.868278 4.786331 0.595122
4.976591 -4.774960 1.478492
0.764023 1.636585 -1.898448
0.087675 1.140480 -2.182487
2.240082 0.546564 -1.689764
-6.496800 2.823200 -0.872900
-5.369447 5.587788 2.768371
-10.094182 4.667247 2.709576
-4.758034 3.115195 3.142217
-5.087400 3.704800 2.341100
-7.516240 -1.896833 -0.267711
-2.707007 7.536010 -2.571759
-6.472065 -6.693594 4.088336
-6.410408 -7.150805 -0.489147
-7.389256 7.904381 -4.856033
-3.748600 -0.684300 4.384600
-7.976237 4.281636 -0.630503
-4.412764 0.839143 -2.199074
-2.952651 -2.481413 4.331684
4.451732 -4.751502 -0.779911
5.729590 -4.041223 2.132964
-0.906700 2.974800 0.489200
-4.244342 -5.132838 -2.201449
-8.255500 5.291100 0.706600
3.108413 -5.910905 0.226977
-8.280837 -1.929625 -0.905151
-2.007258 7.153060 -1.514578
-4.850100 -2.672300 4.159200
-8.850033 3.269083 2.622796
-6.243485 -6.326536 0.196740
-3.488040 -0.888513 4.547025
-1.127902 -4.097803 5.044863
-8.073105 5.038248 0.064092
-4.661927 0.217243 -1.999997
-8.500312 -2.691869 1.489149
-4.099262 1.884917 2.483432
5.377209 -4.767916 -0.881258
-8.199147 5.534558 0.848079
-7.886097 -1.140464 -0.771716
-2.046056 6.759663 -1.899832
-0.438981 -1.561579 -3.813655
-6.592817 -6.143089 -0.648746
-0.938304 0.556151 4.809414
4.426372 -3.310307 2.772283
-3.977053 -0.305881 3.748027
-1.957916 -3.411116 5.902819
-0.097399 2.772665 0.273944
-9.068400 0.822183 1.973604
4.705602 -4.214492 -1.022181
-0.846786 2.773246 0.465701
-8.943532 3.273151 4.110639
-9.277371 3.858135 4.445611
-2.706398 7.113906 -0.507387
1.941245 -6.689262 -0.720219
-8.167100 -1.308600 -0.660000
-1.975826 6.951116 -2.441540
-6.116300 -6.656500 -0.189000
-6.278900 5.211300 -2.959900
-4.678166 -4.120215 3.784302
-4.889211 -4.527772 3.284697
-0.624988 -6.055683 2.064376
-3.601045 -0.403495 4.275898
-0.101910 3.721124 1.390413
-8.344135 1.507090 2.554787
-4.815639 -4.646274 3.677346
-2.065403 -3.951987 -3.355359
-6.775500 5.416800 3.122700
-8.205100 -1.171800 -0.662800
-2.214298 7.881485 -1.998583
-8.423907 -1.361610 1.549089
-1.876448 2.268990 -0.457926
-2.499299 1.837433 -0.552637
-1.359638 2.541292 -0.389693
-6.473639 0.162558 3.778971
-7.019900 -6.313600 1.051000
-8.599343 1.045793 2.390037
-6.646300 4.570500 -2.066800
-2.896500 -2.526300 -3.454800
-8.374500 -1.816100 2.749600
-1.052908 -4.046257 -4.041061
-3.171149 5.109357 -0.781276
-5.574744 -5.351356 -1.416107
-5.287411 6.622055 0.220498
-8.148850 -0.731281 -0.808101
-7.036881 -0.642360 4.479797
-7.124100 1.486100 5.139900
-6.365553 0.916061 5.160344
-1.303781 -6.665160 -0.256969
-6.970545 6.093400 -1.152734
-6.857762 -6.005974 0.639886
-3.033100 -5.891512 4.744458
-0.549700 -4.961800 5.162300
-9.028404 2.925179 -0.254684
-8.886144 2.173857 -0.271093
-1.223140 -3.545142 -4.111365
-3.085094 -2.684436 -3.202229
-2.382100 -6.154900 -0.993200
-5.997206 -5.790298 2.291722
-3.191836 -1.943370 -3.374657
-6.124969 -4.027640 2.314044
0.640302 1.497009 4.052806
1.343760 1.004692 3.875197
-8.109836 -1.356574 -0.874449
-7.221154 -0.956971 3.671743
3.213276 -2.346572 -1.035834
4.161990 -2.110051 -1.537000
3.109412 -1.705750 -1.475571
3.873800 -6.182900 0.659400
-1.784971 1.025661 -1.541521
-0.702107 0.959755 -2.178581
-5.924870 -2.815690 3.792977
3.800260 -1.702884 3.874995
-3.288777 -6.334827 5.076230
-5.233628 -4.920682 1.932434
2.046764 -4.838967 -1.922110
3.667729 -5.245384 -2.507999
-5.246040 -4.012513 2.344139
4.374364 -3.983849 3.428247
-2.744401 -6.143777 5.747910
-5.944004 6.573657 -5.690509
-9.403441 2.529750 1.572013
-1.550796 -3.504447 -3.584946
-8.560823 4.287320 4.017937
3.207739 -4.035080 4.261352
-6.785116 5.157667 4.399860
-3.214915 -3.979304 4.256270
-5.799860 -0.572485 4.549454
-8.666247 -0.773214 -1.082869
-6.141740 5.016865 -0.453786
-5.982249 4.837778 -0.478316
-8.793500 4.054700 3.907800
-1.869924 2.480179 -0.036697
-5.249400 -2.234700 4.317700
-7.336411 4.925650 3.588264
-5.710100 5.884953 0.586597
2.438300 -4.813300 -2.230000
-6.303147 2.124928 5.456149
-2.117465 -3.284771 -3.716927
-8.803381 3.736791 0.987685
1.035578 -5.737904 3.236163
-8.686574 4.063770 3.461922
-6.149352 -1.907674 -1.669558
-3.302692 -4.215151 3.264400
-5.631300 5.983700 0.207100
-6.148266 -0.446390 4.030954
-9.469222 1.388724 3.508673
-7.602784 0.110271 -1.268382
-2.490300 -2.772400 4.625100
1.714041 -6.244996 -0.651605
-8.745600 4.190900 3.857300
-5.243979 -2.132510 4.642390
-8.511488 4.552724 4.080349
-5.526181 1.428126 -1.383241
-6.912800 5.935566 -4.481522
-6.900964 5.134871 -4.760754
-2.985989 8.326836 -1.510352
0.002435 -0.029646 -2.852942
-1.109268 -3.206832 -3.739176
-2.779862 2.734572 0.532217
2.402555 -0.208563 -1.615599
2.379282 0.277669 -2.305501
3.240760 1.424808 1.630149
-0.751848 -5.962833 -1.841080
-2.977701 -4.538780 3.781683
-5.336510 -0.313366 4.825412
-8.294045 -0.446793 -0.879110
-5.876965 -3.575628 -0.383145
3.170300 -0.726400 -1.814800
2.591400 0.209900 4.114800
-8.689500 4.326300 3.798100
-2.354767 -0.135860 4.455204
3.342900 -2.180500 4.134100
-2.519220 1.603417 -1.851673
-8.107441 0.437832 3.631052
5.233304 -5.923928 1.968561
-8.420213 4.595182 4.406375
-7.058673 0.167648 4.598636
-2.205351 8.305361 -1.651190
-0.427073 -1.264418 -3.564615
-2.140949 -3.322151 -4.166193
1.939280 0.605796 4.269656
3.635478 1.722728 2.392369
-3.304918 7.106218 -0.626481
-2.676945 1.404515 -1.029989
-3.087732 -3.427711 4.256966
-6.207717 -0.601995 4.398414
4.707265 -5.436230 0.805778
-8.692548 4.089318 4.131420
-0.285161 3.366647 0.415693
-0.251500 3.284987 0.321930
-5.650900 4.817800 3.063300
4.654559 -4.127512 -1.414663
5.032738 -3.308647 -0.013554
4.748577 -4.186105 -0.327370
-0.311194 0.295186 -2.674008
-1.831153 0.443499 5.357234
-7.093646 -5.932319 0.659087
-8.365318 4.245818 3.964615
-8.248728 4.230395 3.830162
-0.586174 3.697532 1.460721
-0.455039 3.228346 1.161509
-0.481797 3.124899 1.036380
-9.123667 4.294524 1.619818
-1.666394 -2.556050 -3.888867
-0.610248 -6.450838 -2.286395
-2.560438 -5.657957 1.323723
-5.550060 3.637746 -0.238317
4.540460 -1.889701 2.560679
-8.556100 1.174400 2.634500
3.562700 1.460903 2.932094
-3.149500 -3.823500 3.826000
-6.056117 -0.714083 4.884420
5.582200 -5.065600 1.619300
-0.344292 -1.223084 5.223966
-4.823550 -4.729403 1.874726
5.655378 -2.929547 1.928529
2.525810 -5.854768 -1.203444
-6.497300 -6.347200 4.051900
-7.093599 -5.934645 4.796795
