-0.039700 3.133300 1.670200
-6.492600 1.240700 -1.270300
-0.382700 -1.318500 -3.662900
-4.990200 -6.647000 0.572700
-6.756700 6.378700 -5.597600
-7.618900 -3.134300 1.928100
-5.019800 4.013200 1.739900
-3.750500 -3.511700 4.162900
-6.509300 -5.953200 3.776900
-5.178100 3.853700 2.339400
-1.482600 8.163200 -2.158600
-4.357300 2.604300 -0.725200
3.662300 1.186500 0.747700
-6.759400 6.237900 -5.598900
-6.911400 -2.361500 3.870800
-2.649800 1.388900 3.513100
-8.002200 0.205700 3.240300
-5.850400 -2.094200 4.349900
4.705500 -3.974500 -0.440700
-4.647000 -3.246900 3.960500
-4.710900 -3.165400 3.976800
0.017000 3.125800 1.833900
3.096200 -0.464300 -1.692900
4.171100 -0.423600 -0.380500
-0.381500 -1.178300 -3.607100
-5.057000 -6.647200 0.739800
-1.220900 2.813700 2.401400
-6.745600 6.520000 -5.599000
-7.653600 -3.076700 2.048100
-6.524900 6.334200 -2.021700
-5.067800 4.163700 1.738200
-3.749800 -3.371600 4.168800
-5.245000 4.008500 2.341000
-4.347300 2.525500 -0.842300
3.635500 1.226900 0.881800
-2.651600 1.528700 3.366600
-7.984100 0.339500 3.218600
-5.848200 -1.950800 4.368900
0.553200 3.142700 0.745000
-5.225200 -4.338300 2.454100
-0.430500 2.315300 -1.056600
-0.428300 2.419800 -0.969800
-0.381400 -1.037000 -3.573600
-5.102200 -6.606500 0.874200
-7.687400 -3.016000 2.163100
-6.572900 6.332100 -1.895200
-3.749600 -3.231300 4.168200
-8.085500 4.074900 4.616000
-8.164300 4.073200 4.553500
-5.271400 4.162500 2.341500
-5.756700 -5.055800 0.671400
-2.363800 -6.128500 -1.572300
-4.341300 2.436000 -0.948600
3.610000 1.268200 1.015900
0.339000 1.672200 -1.775200
-2.651300 1.663900 3.251100
-5.849200 -1.810900 4.371700
-2.480400 -2.623700 4.752600
0.350900 -1.573000 5.733600
0.931800 -0.733500 -3.014000
0.836900 -0.711500 -3.037700
-8.972000 3.520100 3.820900
-5.133800 -6.541500 0.989000
0.450400 -1.163300 5.624400
-7.716400 -2.949800 2.276600
-5.742400 -3.865400 2.602100
-5.837100 -3.851900 2.570900
-6.625600 6.320300 -1.770800
-3.750000 -3.089500 4.177700
-5.288200 4.315800 2.340700
-2.432000 -6.126600 -1.401300
-0.341700 1.582700 -1.674500
-4.339300 2.340600 -1.047800
-6.371200 -5.542500 3.368700
3.583500 1.315000 1.151600
0.337100 1.564500 -1.859100
-4.685600 0.137700 -2.154500
-4.585600 0.138000 -2.154100
-5.848600 -1.669300 4.381400
-6.897100 3.699500 -0.816400
-5.256700 -6.645300 1.236500
-7.742900 -2.877400 2.384200
-4.683100 -0.581100 -2.191400
-6.682600 6.299300 -1.647400
-9.225000 2.560500 4.025400
3.261300 -0.658000 -1.687300
-4.278700 -1.447400 -2.147200
4.473200 -0.681600 1.616600
-3.749700 -2.948400 4.193400
-8.997000 3.232800 3.993100
0.494500 -6.432200 4.561200
0.513000 -6.266000 4.584100
0.379000 -6.328200 4.618600
-5.328100 4.467400 2.337700
-1.647200 -6.175500 2.093200
-2.509300 -6.141000 -1.217400
-8.326000 0.897000 2.636100
-8.387700 0.898600 2.536800
-4.337300 2.241400 -1.145000
-6.495900 6.038100 -1.578900
3.554500 1.347000 1.283500
-4.584800 -0.005600 -2.158100
4.363100 -2.634800 2.607200
-2.559500 2.593300 0.752000
-4.416700 -3.428200 4.025500
-4.493000 -3.566200 3.960900
0.217600 2.934000 2.628500
0.118600 2.951000 2.593200
-7.037500 1.255700 4.806900
-5.321100 -6.641500 1.398700
-7.530200 5.500400 0.375300
-7.275800 5.822400 -3.492300
-7.770900 -2.806000 2.492300
-6.739400 6.281500 -1.525300
-3.749800 -2.807100 4.206900
-4.993800 6.262500 -0.479600
-5.082300 6.264200 -0.385800
-5.344700 4.622800 2.340800
-9.024600 4.066100 2.716900
-6.230200 6.311900 -4.259300
-2.586300 -6.155700 -1.033700
-8.412600 1.034500 2.636500
-8.460500 1.036000 2.536000
-4.339100 2.136400 -1.235200
-1.073500 -3.005800 -3.712700
1.801200 -2.453700 5.245400
-5.165400 6.263400 -0.285500
2.576800 -6.507400 1.801300
-5.401900 -6.669000 1.584800
-7.302400 5.962900 -3.493200
-7.795600 -2.727300 2.594100
-6.796200 6.261000 -1.401700
-5.289700 -5.237300 2.366500
-5.253100 -5.241600 2.266300
-2.944300 -1.659400 4.473100
-3.062800 -1.685600 4.237500
-3.749400 -2.666700 4.204700
-6.617100 -6.166300 2.903000
-5.076800 6.410800 -0.293000
2.469000 -5.229100 3.896000
-5.329800 4.777400 2.340800
-4.347900 0.013000 4.221100
-2.654700 -6.154300 -0.863000
-4.344500 2.025300 -1.318700
-1.074000 -2.863500 -3.752800
-6.530200 6.902700 -3.745400
-4.683100 -0.436300 -2.201300
-5.564100 -5.632700 2.168800
2.478600 -5.502600 3.907600
2.514000 -6.499100 1.963400
-6.235800 6.469200 -4.259300
-5.453800 -6.642300 1.728600
-7.359700 6.104700 -3.493100
-7.815000 -2.639200 2.689800
4.132800 -3.024600 2.975600
-7.709400 5.416400 -1.189700
-7.087900 -3.654100 1.961800
5.068200 -2.680200 1.074900
-3.749900 -2.527300 4.193800
-4.968000 6.554400 -0.294000
2.569600 -5.086600 3.866500
-5.320800 4.931900 2.339200
-4.349100 0.152600 4.202300
-9.067500 3.650000 2.019500
-9.075200 3.647800 1.920000
-2.727300 -6.161200 -0.686000
-6.439300 -6.338600 4.141400
-7.173400 3.122100 5.078600
-4.350300 1.912800 -1.401000
-1.076400 -2.718400 -3.773400
4.371000 -0.124600 1.116300
1.715500 -0.117400 -2.262800
-8.666900 3.521300 4.503900
2.470300 -5.366600 3.896800
0.638400 -6.537400 4.145800
0.605700 -6.533300 3.955600
-9.086200 3.510600 1.920900
-7.148900 2.982300 5.114200
-5.517900 -6.639000 1.890400
-8.893100 -1.249700 1.146300
-7.434900 6.243900 -3.495300
-7.829800 -2.547300 2.783400
-0.610600 -6.417100 4.856000
-2.080000 8.164300 -1.434600
-2.168500 8.015800 -1.387900
-7.111900 -3.575100 2.063600
5.035600 -2.653900 1.211800
2.454800 -6.482800 2.118700
-4.348700 0.292100 4.165200
-2.799700 -6.168300 -0.509400
-7.199800 3.265100 5.042000
-4.363800 1.786000 -1.468100
-1.074400 -2.577100 -3.797800
4.349600 -4.440700 3.224000
-5.703800 4.274100 -0.238500
-5.681500 4.219100 -0.256400
-2.266800 -6.187000 0.891700
4.163700 -3.301500 2.848000
2.474400 -5.090300 3.904700
3.115400 -2.765800 -1.978000
-6.107200 4.452900 -0.434500
-5.581900 -6.636000 2.051500
-7.561300 6.377200 -3.500700
-7.848200 -2.447800 2.870400
-7.133400 -3.492900 2.164200
4.987700 -2.656700 1.342100
-8.495000 3.662500 4.612100
-2.932100 2.371200 2.086600
-2.839100 2.337900 2.117500
2.392100 -6.474500 2.280200
-4.349100 0.431500 4.137300
-7.293700 2.965500 -0.843700
-7.193800 3.111300 -0.828200
-2.868100 -6.167300 -0.339500
-7.223000 3.406300 5.009600
-7.460900 4.858000 -1.886300
-4.377400 1.657900 -1.533500
-1.077000 -2.434000 -3.816200
-5.692900 3.993000 -0.415500
-5.900000 -5.878400 2.170300
4.210900 -2.754800 2.916100
4.154900 -2.750600 3.012000
4.146900 -2.886200 3.001700
-1.254300 -6.132900 -0.229900
3.336600 -1.643300 4.129200
-2.357400 -0.550600 4.706600
-4.811100 5.910600 -0.699200
4.580400 -1.658600 1.617100
-5.637600 -6.617600 2.200400
-3.821200 5.007100 -0.262100
-9.395700 2.143500 1.428600
-7.818000 6.524100 -3.495800
2.325500 -3.544900 4.585300
0.351300 -1.713900 5.710200
0.251300 -1.713300 5.724400
-1.939400 1.362300 -1.833300
-2.053300 1.345700 -1.814900
-2.051500 1.450300 -1.725500
-7.156100 -3.412400 2.265600
4.940500 -2.657000 1.472800
-3.007500 2.317500 2.207700
-2.925100 2.269900 2.238200
-4.761300 -4.373400 -1.078400
-4.663300 -4.373300 -1.095400
2.333300 -6.458200 2.435000
-4.349300 0.570300 4.086700
-3.222000 -5.762900 5.018800
-2.936100 -6.166600 -0.169700
-4.649400 -4.673000 3.761200
-4.672900 -4.536800 3.744400
-7.577800 4.997800 -1.886800
-4.399000 1.515600 -1.584300
-5.089100 -5.259100 1.864900
-2.060100 -6.131600 -1.509100
-2.128000 -6.129600 -1.338300
2.401600 -3.411200 4.520500
3.925200 -0.592700 3.232600
1.424800 2.796500 0.009000
-6.948600 2.038700 5.315900
-6.948300 1.896700 5.293800
-6.805000 2.005000 5.254100
-1.786600 2.824000 1.323300
-1.839900 2.810500 1.449600
-1.726000 2.829300 1.491300
4.509700 -1.103800 0.117100
-2.810100 -1.095900 4.606600
-2.848800 -1.096700 4.539200
-8.584600 -1.939200 1.849000
1.853300 -3.411900 4.958500
-7.193600 2.966800 -0.868300
-3.587600 0.710300 -2.026800
-5.697700 -6.607200 2.355600
-7.915000 6.663800 -3.496500
-6.236700 -2.802500 3.866400
-9.084500 3.376100 2.521600
-9.096200 3.376000 2.421700
-9.158900 1.884500 4.335600
4.369800 -2.363900 2.616000
3.549500 0.491000 -0.909100
-5.166000 -5.839400 4.584000
-7.182200 -3.338500 2.373200
4.869600 -2.690300 1.595100
-3.249700 7.423100 -0.239000
-4.884500 1.972800 3.100600
2.283200 -6.425600 2.577100
-4.349400 0.707800 4.010500
-3.003700 -6.166700 -0.001400
-2.521600 -4.494100 4.001300
-7.594700 5.135100 -1.888300
-4.424400 1.363700 -1.623200
2.546800 2.141500 2.620100
-7.289900 0.787300 -1.024100
-3.811900 2.823500 0.584500
-5.757500 -6.596900 2.510200
-8.495500 1.037500 2.435600
-1.453200 -5.407300 4.985900
-7.904800 6.804700 -3.497000
-6.382700 -0.897100 -1.883100
-6.249500 -2.702500 3.951700
-9.177400 2.019700 4.349700
-7.211500 -3.268500 2.481900
4.804400 -2.745800 1.715500
-4.891500 2.114600 3.096800
-4.875900 -2.027100 -2.001500
1.327900 -6.562000 2.142400
-6.221900 6.467100 -5.058900
-4.348000 0.848400 3.915700
-3.079800 -6.183200 0.179600
-7.494100 5.273500 -1.890000
-4.445900 1.222000 -1.674200
2.487000 2.113800 2.741900
2.836800 0.361500 -1.573200
4.501700 -2.506800 0.120200
-3.078100 2.273800 2.330300
-2.995700 2.226800 2.361200
2.224900 -6.409300 2.731600
-5.813100 -6.579000 2.658700
0.832700 3.091500 0.561700
-8.589900 1.177800 2.534000
-8.649400 1.220900 2.500200
-1.449700 -5.276500 4.844700
-7.387700 0.782600 -0.969800
-1.369400 6.544300 -1.294000
-6.259700 -2.597100 4.034500
-9.180500 2.154100 4.348500
-7.246600 -3.210400 2.601300
4.734400 -2.789500 1.836800
-8.351300 -1.564100 2.939300
-4.900600 2.254900 3.076900
-6.219700 6.624600 -5.058700
-4.348500 0.986700 3.815300
-2.548000 -5.650700 5.316000
-3.453800 -6.627100 0.866800
-7.484200 5.404800 -1.890000
2.054400 -6.423600 -0.368300
2.430000 2.093400 2.863900
0.311800 0.871400 -2.014800
4.515900 -3.292600 0.084500
4.540500 -2.524300 2.153900
4.578200 -2.531000 2.028500
-3.147700 2.232300 2.454400
-3.059900 2.195300 2.486600
-9.239900 3.235500 1.922300
-9.142000 3.373800 1.921500
-7.556700 -2.722400 -0.660100
-7.687300 -2.570800 -0.658100
-7.581100 -2.581300 -0.760500
-3.382200 -6.618600 0.692500
4.527500 -0.820900 0.417700
-4.608000 5.316500 -0.637000
-1.449700 -5.140100 4.788000
2.439100 1.533800 3.368600
-9.174800 2.288800 4.338400
3.862800 -3.272800 3.468500
-5.016500 -4.986100 1.765200
-7.279100 -3.149300 2.716100
4.670100 -2.816100 1.959400
-8.362300 -1.428700 2.945700
-7.187500 5.088500 -4.284400
-4.895300 2.398900 3.086200
-8.342500 4.180500 0.220400
-4.349500 1.117600 3.706700
-6.718100 5.662700 -5.346600
-3.525800 -6.635700 1.040400
-7.750200 -2.148900 3.338000
-7.658600 5.552700 -1.890700
-7.518800 7.922900 -5.300900
-0.557600 -6.526900 -2.410700
-7.867700 6.863100 -3.434200
-7.880900 6.805200 -3.397100
2.761200 -4.649100 3.973400
4.332900 -1.259300 -0.479400
-0.603200 2.739300 2.912500
-2.886200 -6.460300 1.735000
-1.449400 -4.990600 4.873300
-6.460000 -5.670100 3.471500
-2.366600 -6.183500 0.868500
-7.306700 -3.077800 2.823700
4.601900 -2.850900 2.080300
-8.371600 -1.292900 2.951000
-4.891400 2.546900 3.102700
-8.288200 4.319600 0.216400
-4.349900 1.257700 3.573000
4.337100 -5.405800 -0.338200
-3.570700 -6.595000 1.175100
-2.631400 -6.185300 2.620900
-7.763500 5.693000 -1.890500
3.858200 -3.408200 3.460600
2.423600 -1.957400 -2.512200
-0.475000 -6.083600 3.332600
-5.750000 -4.102100 2.157000
0.226100 3.130900 0.622500
-5.477800 -6.551600 3.754500
-1.446300 -4.838500 4.951300
3.765200 -0.521700 -1.030100
3.759100 -0.628000 -1.116600
-6.481300 -5.710800 3.468800
-7.331000 -2.999300 2.925700
4.534500 -2.899400 2.204600
-8.384100 -1.157600 2.958000
-8.297200 4.457600 0.217700
-4.350200 1.390700 3.467500
-6.781800 -0.768800 -1.673900
4.338600 -5.249600 -0.477700
-3.585100 -6.496700 1.264300
-7.794100 5.830500 -1.892300
-1.668300 -4.742800 -3.227700
0.823500 1.383800 -1.866100
1.299900 2.470800 -0.640400
1.204800 2.491200 -0.663000
1.012600 0.727600 -1.975200
-7.904900 -2.143900 -0.658800
-5.354400 2.972700 3.486700
0.748600 -0.574900 -2.979000
-5.541100 -6.550500 3.913800
-1.448300 -4.693500 5.014000
1.587900 2.398600 2.985000
3.308900 -1.078700 -1.847000
2.734900 1.008500 3.620600
1.012800 0.585800 -2.023400
-3.817300 6.667700 -1.302100
-7.354000 -2.919200 3.027000
4.477100 -2.920900 2.331700
-8.397200 -1.022000 2.965700
-8.283900 4.595800 0.218200
-4.350100 1.525700 3.351700
4.338200 -5.096400 -0.560400
-5.220900 -4.822000 2.463700
-7.784800 5.971800 -1.892300
-1.670000 -4.597100 -3.293900
3.669700 0.396800 -0.783300
3.157600 -0.853100 -1.881600
1.012200 0.870500 -1.950800
-5.147300 4.780400 1.540100
-1.512600 -6.174800 1.758400
-5.388800 3.114400 3.436100
-5.605200 -6.549700 4.072500
1.522400 2.355800 3.105300
4.318100 -2.088400 2.726400
-7.375600 -2.837500 3.127100
-4.009700 5.359500 0.504300
-8.407700 -0.885500 2.971900
-8.236800 4.733100 0.217500
2.007300 -6.270100 4.022000
-5.139900 4.316000 1.738000
-4.350500 1.662900 3.237400
-7.294500 -1.945100 3.870000
4.335800 -4.944600 -0.633100
4.709100 -5.770500 1.554300
-1.669500 -4.447400 -3.366200
-6.746300 6.661800 -5.599800
-6.212100 5.372000 -2.858700
-1.100700 2.840100 2.444400
2.943600 -6.006900 -0.313900
-5.427800 3.253300 3.380500
-6.245500 5.220000 -1.158400
-5.668500 -6.551100 4.230000
1.452000 2.309600 3.222200
3.854400 0.332200 2.772800
-0.025800 -6.119400 0.004900
-8.701300 0.633000 1.136900
-6.747600 6.803800 -5.601500
-7.393300 -2.748600 3.221500
-3.978500 5.510700 0.554000
-8.421300 -0.747800 2.982600
2.412500 -3.947500 4.532500
-5.217000 4.467800 1.736600
-4.350100 1.796700 3.095600
-8.106600 4.339300 4.345900
-8.029000 4.476600 4.264700
-8.108300 4.475900 4.202700
4.334900 -4.800300 -0.665800
4.633300 -5.781100 1.736500
-3.236800 -5.027300 -1.634800
-3.300000 -5.021000 -1.535000
-1.939700 8.685200 -1.718900
-1.895600 8.707900 -1.955000
-1.669900 -4.299200 -3.441600
-6.799600 6.778600 -2.554300
-6.750800 6.782700 -2.679300
4.214200 -2.618800 2.923900
-5.465700 3.392900 3.326200
-5.728100 -6.544600 4.381300
-2.779200 -2.178200 -3.596100
-2.876700 -2.183300 -3.516800
-0.107300 -6.142500 0.195200
-6.770200 6.944600 -5.601300
0.281800 2.654100 -0.629600
-3.032700 -6.241000 2.768000
-7.408700 -2.652900 3.311200
-3.969200 5.658700 0.568700
-8.430200 -0.611800 2.987400
-3.046800 7.574900 -0.423800
-3.047400 7.728100 -0.435600
-0.035700 -6.533300 4.183100
-0.064300 -6.520900 3.986800
-5.201700 4.625700 1.741000
-4.349700 1.930100 2.953800
-8.560200 3.661500 4.535000
4.562000 -5.783900 1.911700
-1.670500 -4.151200 -3.518500
0.268200 2.726000 -0.506900
-6.298200 2.821900 -0.834300
-5.849400 -1.528300 4.396900
-5.509800 3.533000 3.262400
2.875800 -6.408000 0.291400
-5.766900 -6.498400 4.503400
-3.386300 1.019600 -1.866300
-0.180300 -6.149300 0.372300
-6.795200 7.085500 -5.603000
-7.418100 -2.547300 3.393700
-4.086900 5.804200 0.401700
-8.434200 -0.476300 2.986800
5.693000 -4.193100 2.417100
2.445000 -6.159800 -0.302100
-5.184900 4.779900 1.741100
-6.151700 5.114000 3.555100
1.887300 0.278700 -2.083500
1.881300 0.166600 -2.164100
-1.670800 -4.005200 -3.567400
-6.773000 8.116800 -5.798300
0.351300 -1.855500 5.673500
-2.610300 1.594900 -1.472800
3.525900 1.379500 1.415200
2.812900 1.011100 3.558400
0.913300 0.443000 -2.059600
0.913600 0.587100 -2.040300
-5.849600 -1.385000 4.435000
-1.687800 -6.489600 5.034000
-1.799400 -6.509500 5.026500
-1.739600 -6.516700 4.874400
-5.561200 3.672700 3.187600
0.605300 -6.583900 0.369500
4.254000 -0.133300 0.016800
0.747100 2.922900 -0.123200
-6.829100 7.227100 -5.602500
-4.134400 5.941100 0.325600
-8.430000 -0.341400 2.978000
5.710500 -4.055600 2.444100
-4.270200 -3.187900 -1.615000
2.754200 -6.503800 0.541800
-5.261200 -4.194900 2.485600
-5.266800 -4.202200 2.355000
-1.671900 -3.863000 -3.595500
-4.430000 3.033400 0.946300
-7.509000 4.994100 -2.487000
-8.998800 4.064500 2.818300
3.494800 1.415900 1.548700
-5.849700 -1.243300 4.462800
-0.918500 3.014400 0.917500
-0.852400 3.032600 1.085700
-5.593000 3.815000 3.138300
0.607400 -6.410600 4.565700
-1.388900 8.311100 -2.376400
1.027400 -0.753400 -2.993200
-6.876100 7.368000 -5.603000
-0.464000 2.746000 -0.519500
-0.570300 2.744000 -0.517300
-4.963100 -4.090700 -1.082100
2.782000 0.876900 3.688700
-4.126600 6.087900 0.336200
-0.159400 2.918200 2.638200
-8.417000 -0.206800 2.960600
1.577400 -6.328500 -1.964100
1.489700 -6.337700 -2.057400
-4.178300 -1.590800 -2.122000
3.267300 -6.110200 2.493700
1.704600 -1.918000 5.283400
-6.228900 5.220300 -1.457800
-3.940200 -5.312800 -1.791500
3.465800 1.453900 1.681800
-6.859700 6.228300 -1.280300
-5.848400 -1.103100 4.467600
-7.756600 5.525200 1.025000
-5.607200 3.957000 3.122200
-7.050400 -1.123400 4.185600
-7.050400 -0.981700 4.185400
-7.306400 4.829700 -2.713700
-4.955500 -5.959200 -1.139700
4.298600 -3.085200 -0.179000
-8.396900 4.874700 0.414300
-8.300300 4.872900 0.315100
0.741100 -6.085000 3.042500
-7.509600 5.131300 -2.587900
-6.937300 7.508100 -5.604300
-4.104400 6.236800 0.371500
-7.621200 5.505900 0.635000
-8.400400 -0.073000 2.940300
-0.805100 3.035600 0.959300
-3.750100 -2.384600 4.218500
-4.850300 6.701300 -0.296500
-2.809700 6.079000 -1.407800
1.555500 -6.519600 2.694000
1.514300 -6.532200 2.515700
3.219700 1.281400 -0.556100
-0.270800 -6.129300 0.335700
3.435000 1.484200 1.813200
-6.080700 7.096800 -6.073800
-6.078400 7.127600 -6.091700
-5.849700 -0.956100 4.523200
-5.635600 4.099300 3.076300
-0.763000 -6.122000 -1.446800
-0.813500 -6.087100 -1.301700
-0.867200 -6.126400 -1.463400
3.298200 1.228200 -0.498600
-1.198900 -6.153400 0.715800
-7.453300 5.269600 -2.589000
-3.456400 1.397100 -1.661900
3.549900 -5.307700 3.094400
-7.026700 7.651600 -5.598700
-8.379500 0.061500 2.914800
4.007900 -5.671000 2.797600
-3.750700 -2.241600 4.240500
-4.709700 6.842700 -0.297800
-2.958600 -2.096500 -3.453500
3.402900 1.512700 1.943700
-3.148100 -4.537700 3.702300
-5.849700 -0.814100 4.539900
-5.626400 4.243200 3.092900
-6.328100 5.990800 -4.759300
0.991800 -6.570500 -0.310700
0.896300 -6.558600 -0.340800
-6.443800 7.995000 -5.888300
-7.385600 5.409100 -2.590300
-7.124300 7.788600 -5.600600
-7.866500 -2.358300 2.965600
-8.354600 0.195200 2.886400
4.138400 -5.617300 2.776400
-3.750900 -2.098400 4.263400
-3.298800 -6.523300 4.370600
-8.865300 -0.173900 0.741400
2.509600 -6.519400 0.320000
-2.508300 -6.200400 1.758700
-1.078100 -2.293400 -3.812900
3.367300 1.532600 2.072900
2.677600 -6.269600 2.513900
-1.227700 2.964300 1.670600
-1.113000 2.980900 1.712200
-5.610000 4.389000 3.120600
-3.357000 -6.458300 4.820200
-5.887200 0.260800 -1.876400
-7.373300 5.548000 -2.590900
2.668600 -0.363200 -2.001900
-2.048100 0.165000 4.387800
-7.194000 7.928200 -5.598700
-7.884800 -2.269000 3.060700
-8.330400 0.329000 2.858700
-3.782700 -0.709800 -2.353500
-3.750200 -1.953300 4.328300
-2.764600 -6.238900 2.101600
-6.781600 -1.339400 -1.777700
-2.338200 7.717100 -1.287800
0.733700 1.514700 -1.806700
-2.200800 -6.135800 -1.160500
3.839700 -0.680200 -1.061500
-1.078300 -2.154900 -3.791300
2.081800 -5.848300 -1.670500
3.333700 1.559900 2.202800
-1.563900 -6.224000 -1.698900
-1.668100 -6.228500 -1.715800
2.627500 -6.234500 2.654800
-5.611300 4.532900 3.119300
-2.187400 7.866700 -1.417800
-3.710000 2.615600 -0.341800
-7.408700 5.687300 -2.591700
-2.049500 0.300900 4.334800
-7.190900 8.077200 -5.593700
-7.901200 -2.173100 3.151600
-8.303600 0.464600 2.827100
0.897500 1.370500 3.947900
-4.372400 -2.605700 -1.820300
-3.749900 -1.809900 4.365400
-4.984500 -0.148400 -2.207400
2.968200 -1.843600 -2.050900
3.023600 -1.710200 -2.005000
-1.079200 -2.013300 -3.802900
4.382900 -1.395200 -0.379100
2.397800 -1.598300 -2.506400
5.052800 -5.540200 1.621500
5.257500 -5.379300 1.620700
-5.627100 4.675700 3.096700
-6.428400 7.536400 -6.122100
-4.983800 -0.292400 -2.219800
-5.308900 -4.691100 -0.643800
-5.411000 -4.680100 -0.537300
-7.496900 5.824100 -2.594200
-0.869700 7.270600 -2.577900
-0.249000 1.279900 4.199600
1.584400 -5.248000 4.374900
-3.749800 -1.669600 4.382500
-5.887900 0.404500 -1.853900
-5.888600 0.547100 -1.815200
-5.786900 0.546500 -1.833600
-2.543100 8.021400 -0.870600
-1.080200 -1.870500 -3.826600
2.573000 -6.209400 2.803600
1.949600 1.257000 3.738800
-1.385600 -6.127000 -0.447300
-4.985400 -0.003300 -2.188900
-4.013100 6.068100 -1.173300
-0.874500 -0.238000 -2.941400
-7.670200 5.969000 -2.592000
-5.881400 -6.584800 2.825000
-0.871200 7.115600 -2.572300
-6.480100 -1.329400 -1.903000
-6.380000 -1.472500 -1.917000
-5.250100 -5.342700 4.203900
-1.722600 -6.435500 5.152700
-1.837500 -6.465100 5.152800
-3.749900 -1.529000 4.393500
-7.460100 -0.852300 4.000800
2.157100 -6.409700 2.899500
-3.085800 0.008000 -2.282900
1.488500 -6.219700 4.412900
-8.680000 -1.532300 0.848300
-1.080400 -1.728800 -3.842100
0.310900 1.015500 -2.024000
2.510500 -6.172700 2.972300
-4.986300 0.138500 -2.158400
-5.796900 -5.918500 4.622200
-2.074200 1.001400 -2.051200
-9.143400 2.000300 0.730900
-0.371700 0.059100 4.673900
-7.818300 6.107200 -2.593900
-4.346000 0.999500 -1.840500
-5.941200 -6.575100 2.978700
-6.768400 6.092200 -5.599400
3.062100 -2.628900 -2.075900
0.152800 -2.546300 5.710000
-9.157500 2.422100 4.318300
-2.357000 -6.311200 5.415400
5.911100 -4.195900 0.617500
-3.749800 -1.389000 4.391900
-3.218500 2.187600 2.577100
2.072300 -6.442700 3.092700
-7.367600 0.840200 3.801100
-1.081400 -1.587600 -3.853700
0.533000 -6.104500 -0.830100
-3.475300 1.155500 -1.809500
-1.668500 0.970100 -2.019300
1.749000 -1.259900 4.999600
-7.457600 -0.987600 4.001600
-1.346000 -3.542700 5.397800
4.958000 -3.478600 -0.133900
-0.443000 0.020400 4.799800
4.350200 -4.579900 3.249200
-1.839600 1.249200 -1.916100
-6.004700 -6.573400 3.138700
-6.793800 6.236800 -5.497800
-4.674300 -2.323500 -1.822900
-6.052300 5.549500 2.354900
-3.750500 -1.251500 4.367800
-4.899900 2.685400 3.089000
3.324100 -1.717800 -1.891300
-3.294500 2.133800 2.699200
2.004800 -6.443200 3.260300
2.420900 -6.092400 3.430100
-6.808900 6.093000 -5.501000
3.962800 0.360200 -0.160800
3.968300 0.271900 -0.275700
3.881800 0.406700 -0.210400
3.725400 0.970100 2.203900
3.576100 -3.853600 -1.279300
-2.213300 6.677200 -1.831100
-2.426600 -4.115100 -3.137500
-6.064600 -6.564100 3.292200
-6.792100 6.378600 -5.497500
-9.090000 2.693800 4.242500
-3.749800 -1.111800 4.337400
-4.920600 2.826900 3.057400
-3.369600 2.080200 2.821500
2.549500 -5.937500 3.430500
-3.608100 -6.415000 1.366200
-3.806300 2.768600 0.145500
2.452200 -6.172900 3.112400
-6.873300 7.800200 -5.023500
-6.801500 7.731200 -4.997600
-6.423700 5.855500 -1.407600
1.982700 -6.484300 0.555800
1.312700 2.053800 3.498200
-7.961000 -2.001400 -0.655100
-2.214000 6.826000 -1.919100
-2.496300 -3.688000 -3.245400
-6.128300 -6.562900 3.451500
-1.450500 -4.550900 5.067600
0.823200 -6.121400 3.092000
-9.052200 2.829400 4.200100
-5.141700 -3.725800 3.273000
-3.748200 -0.968000 4.354300
-9.095100 4.707300 2.502600
-9.119700 4.571800 2.531300
-9.050400 4.709900 2.599000
-4.948400 2.968200 3.015700
2.936600 -5.527100 -0.609600
5.936700 -4.331500 0.917300
5.879600 -4.476900 0.917000
-5.088700 0.558900 -1.945200
-5.088300 0.699800 -1.916300
-9.392000 2.828900 2.124800
-6.705400 5.457400 2.999100
-1.749800 1.116600 -1.973200
-8.021400 -1.861400 -0.655300
-2.215500 6.973300 -1.985800
-5.088100 0.842400 -1.901000
-6.191900 -6.561800 3.610900
-5.840500 -6.647500 -0.869700
-6.846900 5.374300 3.247800
-0.649000 0.728000 4.401300
-2.912200 6.373300 -1.554900
-2.811000 6.376800 -1.574200
-3.749000 -0.826200 4.372800
-4.972100 3.106200 2.988500
-8.201800 4.870800 0.217200
5.066800 -5.482500 1.913700
0.882600 1.093100 -1.953000
0.813200 1.017100 -1.970700
2.075500 0.431000 -1.846300
-6.496800 2.823200 -0.872900
-5.546600 4.959000 2.864100
-9.002300 4.845100 2.545500
-4.948300 3.576300 2.219100
-5.087400 3.704800 2.341100
-8.070400 -1.722600 -0.656700
-2.223300 7.121600 -2.047400
-6.251500 -6.553100 3.763600
-5.913200 -6.655700 -0.693800
-7.236700 7.780600 -4.725200
-3.748600 -0.684300 4.384600
-8.185600 5.004600 0.220600
-4.987700 0.420500 -2.032200
-2.710000 -2.205600 4.682800
4.335400 -4.660500 -0.666200
5.892500 -4.196200 2.116900
-0.906700 2.974800 0.489200
-4.161900 -4.941800 -1.100100
-8.255500 5.291100 0.706600
3.353600 -6.273300 0.265400
-8.113100 -1.581700 -0.653500
-2.218500 7.269100 -2.089200
-4.850100 -2.672300 4.159200
-9.353900 2.963700 2.023800
-5.980900 -6.655800 -0.524700
-3.746200 -0.545400 4.365300
-1.149300 -3.956700 5.449900
-8.097100 5.134000 0.224400
-4.986500 0.278800 -2.104900
-8.060600 -2.798100 0.754000
-4.236400 2.069100 2.809300
4.336400 -4.521800 -0.644400
-8.332100 5.332400 0.972400
-8.140500 -1.445000 -0.656700
-2.220400 7.417300 -2.116400
-0.864100 -0.929700 -3.628000
-6.053500 -6.664300 -0.349700
-0.703500 0.108500 4.451100
4.202500 -2.892000 2.899000
-3.748700 -0.406700 4.321100
-1.311200 -3.739400 5.451300
-0.311200 3.092700 0.709900
-8.807000 1.307400 2.394500
4.336900 -4.383300 -0.598900
-1.314100 2.738900 -0.090000
-8.936000 3.371700 4.069800
-8.969400 3.369400 3.959500
-3.500900 6.825700 -0.164300
2.196400 -5.979800 -0.870600
-8.167100 -1.308600 -0.660000
-2.219100 7.565800 -2.138200
-6.116300 -6.656500 -0.189000
-6.278900 5.211300 -2.959900
-4.590200 -4.536700 3.803900
-4.595900 -4.398900 3.805900
-0.369400 -6.131900 2.496000
-3.748900 -0.268800 4.270600
-0.158000 3.135700 1.340200
-8.841500 1.376400 2.509100
-5.194300 -4.961300 3.269500
-1.672500 -3.720000 -3.622500
-6.775500 5.416800 3.122700
-8.205100 -1.171800 -0.662800
-2.218900 7.713100 -2.137200
-8.639100 -1.804800 0.951200
-2.095200 2.167600 -0.878800
-2.085000 2.088100 -0.994600
-1.253700 2.843400 0.198700
-6.804300 1.004600 3.812900
-7.019900 -6.313600 1.051000
-8.879900 1.429400 2.640700
-6.646300 4.570500 -2.066800
-2.896500 -2.526300 -3.454800
-8.374500 -1.816100 2.749600
-1.673300 -3.572900 -3.699500
-2.591200 5.975300 -1.309100
-5.255800 -4.984500 -0.685600
-5.073300 6.153300 -0.440500
-8.252500 -1.032600 -0.660500
-7.053200 -0.841000 4.193500
-7.124100 1.486100 5.139900
-7.048600 1.611100 5.209400
-1.149800 -6.128400 -0.213100
-6.923300 6.195400 -1.159100
-6.977400 -6.178000 1.006000
-3.096500 -6.523700 4.414100
-0.549700 -4.961800 5.162300
-8.590200 2.252100 -0.270100
-8.579600 2.387500 -0.272100
-1.673100 -3.424500 -3.771200
-2.846800 -2.814200 -3.354300
-2.382100 -6.154900 -0.993200
-5.744200 -5.754400 2.169700
-2.938300 -2.240300 -3.459400
-5.750000 -4.117300 2.126000
0.749800 0.959700 4.082200
0.844200 0.975300 4.032300
-8.286200 -0.894700 -0.661000
-7.051300 -0.697500 4.201400
3.357600 -2.181900 -1.779300
3.428600 -2.174300 -1.674900
3.382900 -2.320500 -1.678800
3.873800 -6.182900 0.659400
-1.224400 1.209300 -1.872500
-1.334400 1.201000 -1.863100
-5.249200 -2.378000 4.279900
3.738600 -1.787200 3.655900
-2.954100 -6.514600 4.612000
-5.228100 -5.385800 2.067500
2.439300 -4.960000 -2.179500
2.538400 -4.966300 -2.102600
-5.238600 -3.738300 3.140600
4.648500 -3.484500 2.818200
-2.330300 -5.700700 5.379300
-6.098200 7.095600 -5.970100
-9.421800 2.551800 1.725800
-1.674000 -3.282100 -3.801000
-8.899100 3.778000 3.880300
3.364400 -4.218300 3.796000
-7.086900 4.970200 3.924700
-3.149600 -4.396600 3.711500
-5.849600 -0.674000 4.527000
-8.282500 -0.756500 -0.657000
-5.700300 4.572500 -0.171900
-5.701400 4.720100 -0.173100
-8.793500 4.054700 3.907800
-1.650600 2.604100 -0.139700
-5.249400 -2.234700 4.317700
-7.181200 4.996000 3.890500
-5.497200 6.124600 0.205900
2.438300 -4.813300 -2.230000
-6.685400 1.422500 4.722800
-1.674400 -3.138500 -3.820800
-8.833700 3.777500 0.920300
0.777700 -6.142200 2.920400
-8.831600 3.917800 3.950000
-5.976800 -2.037400 -1.939000
-3.149100 -4.253900 3.738400
-5.631300 5.983700 0.207100
-5.849600 -0.538100 4.482700
-9.040100 1.514400 3.075400
-8.258000 -0.621900 -0.656900
-2.490300 -2.772400 4.625100
1.550100 -6.549500 -0.593100
-8.745600 4.190900 3.857300
-5.249700 -2.091400 4.371600
-8.108200 4.610300 4.057700
-5.180200 1.134900 -1.789200
-7.057000 5.277600 -4.681500
-7.096100 5.248400 -4.608100
-2.922900 7.998600 -1.302300
-0.149600 -0.876800 -3.475500
-1.675000 -2.999800 -3.830800
-2.821500 2.511600 0.364000
2.594000 -0.199400 -1.974600
2.578700 -0.327900 -2.036700
3.295700 1.572400 2.330800
-0.609200 -6.086500 -1.261700
-3.154000 -4.109400 3.776800
-5.849800 -0.401900 4.408400
-8.227800 -0.488600 -0.652400
-6.364200 -3.729200 -0.368200
3.170300 -0.726400 -1.814800
2.591400 0.209900 4.114800
-8.689500 4.326300 3.798100
-2.049700 0.439100 4.295200
3.342900 -2.180500 4.134100
-2.083000 1.992900 -1.094300
-8.271700 0.598200 2.790800
5.039900 -5.539200 1.721100
-8.187500 4.474800 4.140800
-7.053100 -0.275100 4.141400
-2.757500 8.144900 -1.303400
-0.056700 -0.904300 -3.450400
-1.675700 -2.854900 -3.865800
2.657700 -0.053400 4.209800
3.248600 1.576400 2.455600
-2.733500 7.271700 -0.982600
-2.185600 2.000400 -1.101600
-3.149800 -3.966200 3.800000
-5.850200 -0.263000 4.319100
5.437400 -5.220100 1.619900
-8.264700 4.471300 4.076700
0.045000 3.094800 0.412400
0.159300 3.111800 0.455000
-5.650900 4.817800 3.063300
4.918800 -3.973300 -0.438200
4.812600 -3.972500 -0.442700
4.826900 -3.838900 -0.376700
-0.386800 0.593700 -2.243900
-2.049600 0.578100 4.246300
-6.652300 -5.640900 0.948600
-8.259100 4.339800 4.216500
-8.343400 4.335300 4.159100
-0.267000 3.127400 1.300200
-0.381700 3.113500 1.258200
-0.320100 3.116400 1.424100
-9.153100 4.746300 1.714800
-1.676400 -2.712000 -3.890100
-0.657600 -6.531700 -2.433500
-2.373900 -6.199700 1.424200
-5.072900 3.363700 -0.122000
4.507000 -1.943700 2.316500
-8.556100 1.174400 2.634500
3.196000 1.565000 2.578400
-3.149500 -3.823500 3.826000
-5.850000 -0.125000 4.289600
5.582200 -5.065600 1.619300
0.250400 -1.433800 5.732700
-5.210400 -4.682900 2.463300
5.799900 -3.095600 2.085900
2.004800 -6.143400 -1.169000
-6.497300 -6.347200 4.051900
-6.474700 -6.207400 4.028500
-0.387800 0.737000 -2.240300
3.279500 -2.861500 4.037100
1.046400 -6.538900 -0.703400
-6.185200 6.938300 -5.359600
-1.503700 -6.151600 0.106700
-9.145500 4.883600 1.713800
-6.605100 1.246000 4.124200
-1.677000 -2.570400 -3.900200
-5.078800 3.247000 -0.197500
3.144200 1.553900 2.701400
0.310200 1.160600 -2.028100
-7.355900 5.583000 1.020100
-3.150500 -3.680200 3.849600
-5.849900 0.016100 4.288200
5.701600 -4.913200 1.618900
-7.691700 -1.260200 3.821100
-7.672900 -1.395800 3.806300
4.515600 -0.680800 0.517600
-6.736300 1.095400 3.923700
-6.555100 1.247500 4.024500
-6.774900 1.125800 4.076900
-0.850800 -5.423500 4.769900
-7.850000 6.248200 -2.594400
3.278000 -2.727100 4.035600
-0.138500 -6.087800 -0.791900
-0.206800 -6.085700 -0.620900
0.584200 -6.256400 -0.493400
-2.740400 2.328500 2.155900
-5.595300 5.103900 2.971600
-6.455900 1.407000 4.176700
-1.677500 -2.430100 -3.894500
-5.093800 3.119700 -0.260500
3.087400 1.532300 2.823200
-1.709900 -6.167700 2.253600
-0.139700 -6.537900 4.165900
-5.849700 0.155900 4.262700
5.794900 -4.761600 1.618000
-3.008500 7.901900 -0.589600
-9.132800 4.745800 1.614800
-0.514300 -0.024100 4.924600
-0.851900 -5.287700 4.766300
-7.819600 6.389100 -2.594900
3.287100 -2.593300 4.049600
-4.618200 3.093600 2.202400
-2.563400 2.239300 2.516100
-2.661300 2.143800 2.630600
4.952900 -3.891600 3.047400
-5.045800 -4.973600 3.630100
0.621900 -6.486600 0.654900
-6.382200 1.559600 4.291100
-1.677800 -2.291800 -3.870400
-5.110600 2.985800 -0.316500
3.025400 1.500200 2.943400
-0.718100 -6.099000 -1.271900
-5.849700 0.293600 4.209700
-7.110500 5.396300 -4.591400
-7.096900 5.393400 -4.692900
-2.826300 2.252400 2.273400
1.650300 1.817500 3.551500
-7.049500 0.411400 3.828800
-0.847700 -5.108800 5.008500
-6.783200 6.520600 -5.499500
3.244200 -2.452300 4.165400
-2.366100 -1.473300 5.447300
-6.616600 -5.684100 -0.127400
-6.330900 1.701700 4.364500
-1.678600 -2.152500 -3.855900
-4.233000 -6.591200 2.825400
-5.125900 2.857500 -0.377800
-5.118900 -4.418700 1.543500
-4.864200 -4.233500 -1.084500
-4.428900 2.654200 1.984000
-5.849600 0.430300 4.145200
-4.512100 -6.225400 4.468700
-7.050800 0.550500 3.769600
2.672300 -6.526400 0.732700
3.276100 1.383000 -0.261900
3.288500 1.308700 -0.384400
-4.189600 -6.633200 2.694000
-0.849600 -4.967200 5.101300
-6.785100 6.661900 -5.501000
-1.449200 -4.405600 5.112300
3.262400 -2.315200 4.192600
-2.948900 1.954900 -1.046300
-1.108900 -6.119600 -0.584600
-0.827200 -6.057200 4.918200
-0.827700 -5.917800 4.920700
-4.361200 2.573900 2.014300
-4.869200 -3.061900 -1.462100
-6.427500 -5.561400 -0.129700
-6.297300 1.845700 4.415400
-1.679600 -2.008000 -3.888800
-5.801500 2.816800 -0.680200
-4.280300 -6.557200 2.962400
-5.127200 2.750400 -0.468000
0.565500 -6.344100 2.515700
4.131000 -0.428000 -0.478800
2.805000 -2.591400 4.408200
-5.849800 0.568900 4.060500
-4.526100 -6.089200 4.450200
-7.065800 0.688000 3.734200
2.586400 -6.557200 0.929900
-6.314700 5.679100 -3.960000
-6.363300 5.518100 -3.861600
-9.162400 3.103800 2.822900
-1.447400 -4.261000 5.144200
1.525200 2.200500 -0.948900
1.531300 2.113500 -1.055200
1.437600 2.137400 -1.080400
-3.867500 2.748900 1.596700
-2.263700 -3.774100 4.429100
-8.300800 3.529600 -0.152400
-6.267900 1.989800 4.464100
-5.309500 -6.493700 -1.224400
-1.680100 -1.865400 -3.931700
-4.344700 -6.554700 3.122900
-5.126600 2.652000 -0.563400
-7.885800 0.585100 -0.658000
-3.703400 2.788600 1.213000
-5.850000 0.705200 3.971400
-5.256500 -5.826900 -1.015300
-2.469300 -3.460600 -3.359900
-8.884700 -1.251900 1.046500
-7.050400 0.829400 3.727700
2.518200 -6.555600 1.100400
-6.307200 -6.536500 3.910600
-1.677900 -0.151800 4.581200
-5.925800 -5.327900 -0.132700
-6.259200 2.130000 4.474300
-1.680800 -1.723900 -3.941200
-4.408300 -6.552400 3.283500
-5.120700 2.562700 -0.670500
-5.849800 0.839800 3.879700
-8.726900 1.267700 2.444300
-6.949400 1.756000 5.253300
-6.844500 1.720100 5.194800
-6.817600 1.863300 5.235400
2.463000 -6.529500 1.251600
2.376400 -6.501200 1.208600
-3.978500 -1.586400 -2.157600
-6.358700 -6.514000 4.050600
5.263700 -2.890700 0.470300
4.098900 -3.569000 2.926900
-5.774900 -5.200000 -0.135700
-5.083300 -0.437200 -2.212700
0.679900 -6.525000 4.323200
-6.253500 2.270300 4.476200
-1.681700 -1.583700 -3.924000
-4.464300 -6.534700 3.432200
-7.162400 5.748700 -0.225600
-5.114700 2.473600 -0.777600
-6.082800 -0.893100 -1.919700
-7.438800 4.304200 -0.684500
-7.444900 4.166600 -0.675200
-5.849700 0.976600 3.779100
0.634500 -6.484400 4.457400
-6.392900 -6.459900 4.166600
-5.706700 -5.067400 -0.137700
-6.259300 2.412000 4.466000
-2.859000 1.014600 -1.860800
-4.532100 -6.540700 3.597900
-5.109300 2.386000 -0.885800
-6.549300 -6.298100 -0.733800
-3.771400 -2.899300 -1.685500
5.051000 -3.485200 2.840600
-5.849700 1.113500 3.678600
-6.069300 -3.070400 -1.385500
-5.968600 -3.064100 -1.433900
-2.338300 -1.338800 5.415100
2.086800 2.112400 3.167700
1.676800 -6.519000 -1.165400
-6.183200 -6.656800 -0.021300
-3.750300 -0.127900 4.238200
-5.669100 -4.932300 -0.137900
-0.402200 2.976200 2.404200
2.585200 1.987200 -0.319500
2.498800 2.025000 -0.360300
-4.592100 -6.531100 3.752000
-5.098500 2.302300 -0.999400
-7.049300 1.756200 5.278600
-6.990700 1.081700 -1.063800
-7.703100 6.731900 -2.748400
-5.848700 1.251500 3.608000
1.600700 -6.526900 -0.980000
-3.316100 -6.574200 2.469000
-7.822500 0.479900 3.335900
-3.748500 0.007800 4.192300
-5.644500 -4.795200 -0.138400
-4.663900 -6.545500 3.923100
-5.097000 2.206400 -1.099800
-6.394300 2.531100 -0.880100
-3.906300 2.785800 1.434700
1.522900 -6.540400 -0.794800
-6.200000 3.259200 -0.773200
-9.008900 3.513500 2.421500
-6.406400 -6.480400 2.272300
-0.431700 3.069400 0.665500
-5.801900 3.110300 -0.658900
-3.582300 2.761800 0.522700
-1.450800 -3.407700 5.370400
-6.291400 1.807000 -0.990400
-6.359000 5.359400 -3.563300
3.458100 -6.319100 1.628100
-7.018900 5.628500 2.156900
-3.749900 0.146500 4.121300
-6.942900 -6.043300 0.968600
-5.631500 -4.657100 -0.138700
0.472200 -0.594500 -3.163100
-2.651900 -6.112300 3.806200
-2.690100 -6.117600 3.625500
-4.723800 -6.536300 4.076500
-5.098900 2.102200 -1.191400
-2.915800 -2.668900 -3.359900
-2.844400 -2.671700 -3.452900
-6.039000 1.610900 -1.265200
-2.559000 8.276300 -1.050900
-2.542700 8.183700 -0.892300
-2.502100 7.865900 -0.994700
-3.986100 0.140400 -2.123800
-3.985700 -0.001900 -2.169900
-0.446200 2.682000 -0.651400
-6.701300 -2.085900 4.131000
-6.729600 -2.148700 4.082600
-6.184700 5.375100 -2.157700
-1.448900 -3.261900 5.422600
-6.032900 1.723000 -1.181200
0.250100 -1.026600 5.586500
-6.970600 5.630900 2.028900
-6.902800 -5.909400 0.923700
-5.621300 -4.519600 -0.140000
-4.787400 -6.535100 4.235900
-5.100900 1.997500 -1.282500
-6.285700 4.594800 -1.057700
-2.987500 -2.519300 -3.355800
-6.044200 1.497100 -1.347300
2.138500 -2.450800 5.029400
-8.377700 5.346600 1.101900
-5.380500 5.976800 -0.183600
5.669500 -3.256300 2.393800
-6.173300 5.686800 -2.058400
-2.264800 8.296300 -1.903100
-6.991500 0.940100 -1.116400
-9.348800 1.741900 2.030200
-1.449700 -3.120900 5.463900
-2.935600 -2.381600 -3.456000
-8.960200 3.649800 2.420000
-2.256500 8.472800 -1.230000
-6.922400 5.634000 1.900500
-6.859600 -5.776900 0.876700
-1.717400 6.974900 -2.152600
-5.622200 -4.394800 -0.142100
-6.450600 -1.813300 4.364200
2.054000 1.664600 3.515000
-4.838800 -6.512500 4.375900
-6.428100 7.390400 -6.125500
-3.039600 -2.373200 -3.356800
-7.995400 3.390500 -0.443100
4.104000 -3.433000 2.935900
-0.981000 6.666500 -2.077400
-0.238900 -5.755500 4.721100
-2.167600 8.446500 -1.907100
-1.449600 -2.983000 5.473800
-2.875300 -2.325100 -3.502900
-8.414800 5.365000 1.235400
-5.250100 -1.944800 4.431100
-8.017700 5.504600 1.372200
-5.636700 -4.242300 -0.142000
-6.449000 -1.667100 4.408600
3.204500 -3.886600 -1.776800
-3.054500 -2.230900 -3.359000
-2.923100 1.499600 -1.571500
0.242000 -6.384900 -2.422200
4.103500 -2.475300 3.121000
4.106500 -2.341000 3.122300
-8.135700 0.959800 3.005300
-6.874000 5.634900 1.772000
-8.172800 -0.354500 -0.656400
-1.448600 -2.842300 5.492500
4.109700 -2.205700 3.129600
4.050000 -2.338100 3.216500
-8.464000 5.364700 1.365900
-8.619800 4.464100 3.724800
-5.251100 -1.802200 4.471400
-1.303900 -6.158700 0.153600
-6.449600 -1.525500 4.436200
-0.162200 -6.369300 1.302300
-9.021300 2.266400 0.528600
-2.230600 8.446600 -1.807100
-3.040200 -2.089600 -3.357700
0.240700 -6.236700 -2.456300
4.174200 -3.233900 -0.475300
4.171900 -3.377300 -0.378200
-8.067500 5.507400 1.501200
-5.912400 1.540000 3.719600
-5.832800 1.697900 3.836100
-8.143800 -0.218100 -0.662600
-2.259000 -6.349600 -2.861300
-7.026700 2.845100 5.115600
-7.117300 2.843600 5.160900
-8.408000 -1.813200 2.649100
-1.450700 -2.699000 5.540600
-2.049000 0.715400 4.193800
-2.976200 0.787700 -2.022900
-5.249700 -1.662100 4.489900
-1.227100 -6.143500 -0.029700
-2.091600 7.271500 -1.462300
-2.177300 7.272900 -1.410100
-6.449400 -1.383300 4.461700
-3.498500 -1.628100 -2.363000
1.325100 -6.503100 -1.959700
-6.984100 2.704900 5.176300
-4.950400 -2.674700 4.162500
-3.026900 -1.948900 -3.356800
-8.958100 3.787700 2.418500
3.612900 -1.414500 -1.690400
-8.114700 5.500900 1.630900
5.184900 -5.356400 2.019100
5.329800 -5.230100 2.020400
-5.787900 1.838400 3.906100
-8.138200 -0.083500 -0.657800
-2.260300 -6.204900 -2.870200
-5.705900 -4.785400 0.466400
-7.062500 2.985600 5.064300
-4.665700 -6.308900 -1.727000
-7.650200 2.459000 5.265800
-1.448400 -2.551200 5.615300
2.701600 1.537800 3.221100
-4.911600 -6.625700 -1.253800
-2.049000 0.853200 4.130600
-5.249600 -1.517400 4.537000
-7.986300 2.219100 -0.554600
-7.887200 2.221700 -0.609700
3.767500 0.466200 2.826200
-3.217800 -5.257800 4.429400
-6.449200 -1.241200 4.486900
2.333100 -4.217300 -2.558200
-6.091600 6.979500 -6.087000
-3.004100 -1.809300 -3.358900
-4.993000 -6.649400 -1.064500
-8.168900 5.488100 1.758500
-3.148700 -3.538300 3.878700
-6.098900 -5.786200 4.351600
-5.754400 1.983500 3.956700
-8.102200 0.050900 -0.657900
-2.261100 -6.060300 -2.881800
-7.087800 3.124500 5.027500
-4.630300 -6.171300 -1.728400
4.848000 -3.488400 -0.124600
-4.795600 -3.006800 4.000500
-2.884500 2.488100 1.808300
-2.049600 0.991600 4.057000
-5.249800 -1.376600 4.553900
-7.989400 2.365800 -0.558800
-7.889800 2.368200 -0.614100
-6.450000 -1.100300 4.489900
-2.978000 -1.669600 -3.358700
-5.065200 -6.657100 -0.887800
2.067300 -2.046000 5.104800
0.942500 -6.248800 -2.327000
-8.236200 5.459800 1.883100
-3.149200 -3.394200 3.915600
3.369400 -0.052000 3.659200
2.498500 -4.234500 -2.379400
5.856200 -4.616500 1.617800
-6.122500 -5.921100 4.378900
-5.735100 2.126700 3.986000
-8.056200 0.185500 -0.659900
-2.261100 -5.916000 -2.897700
-7.115100 3.266400 4.988500
-4.553900 -6.037700 -1.729100
5.249900 -2.818600 0.596000
-2.049900 1.130600 3.983400
-1.224500 2.801900 0.040700
-5.249600 -1.237700 4.537600
-6.449300 -0.960000 4.474900
-0.659100 -6.231000 -2.543500
-2.943100 -1.529400 -3.361400
-5.133300 -6.656800 -0.718500
-7.955800 5.185800 3.321300
0.940900 -6.104100 -2.321100
-3.150800 -3.249400 3.949700
-8.926900 3.652700 3.019800
5.906500 -4.473900 1.617800
-6.378000 -5.809600 3.924500
-5.718300 2.268400 4.011800
-8.008000 0.319200 -0.660000
-4.086500 0.422500 -2.054900
-2.261400 -5.773600 -2.887300
-7.133900 3.406700 4.962200
-4.477800 -5.904000 -1.730000
-5.738000 5.172600 3.199700
-2.050900 1.269600 3.897400
-5.249600 -1.098800 4.511200
-6.448500 -0.822300 4.435500
-5.201200 -6.656600 -0.549400
0.941200 -5.960800 -2.330100
-3.150500 -3.107000 3.976200
5.956700 -4.331400 1.617600
-6.337200 -5.678000 3.879800
-5.713000 2.411800 4.020600
-7.947900 0.452400 -0.660000
-2.261900 -5.632700 -2.854200
-7.160300 3.550100 4.925700
-4.403300 -5.769200 -1.730900
-8.860200 -1.121200 0.646700
-8.857400 -0.988600 0.646800
-0.849800 -4.818500 5.185800
-0.575500 0.080000 4.601900
-2.051200 1.406600 3.796200
-6.795100 6.802900 -5.501100
-5.249900 -0.961300 4.470300
2.549200 -6.309400 2.526900
-6.853100 -5.647600 0.368800
-6.448400 -0.684400 4.397200
0.604000 -6.555800 -1.527100
1.919900 -6.476300 3.453400
0.111100 1.014700 -2.012900
3.902100 0.062800 2.849400
-5.269200 -6.656600 -0.380200
-8.985300 2.130200 0.430100
-8.949800 2.127600 0.330400
0.939800 -5.811000 -2.391600
-3.150000 -2.964600 4.002900
6.004900 -4.188000 1.617500
-5.728600 2.553300 3.998900
-2.391900 -6.166500 -0.429000
-2.262400 -5.494600 -2.811000
-4.316200 -5.634800 -1.732100
-0.849600 -4.672000 5.245100
-1.049400 -0.669800 -3.496800
-1.043600 -0.559800 -3.409300
-2.050000 1.541200 3.703000
-6.818600 6.944300 -5.501500
-5.249800 -0.822900 4.415800
2.499400 -6.276800 2.668600
-6.720800 -5.520800 0.368800
-6.451500 -0.544700 4.341200
2.427200 -3.524500 -2.378300
2.433000 -3.382600 -2.398200
-3.449400 -5.809700 -2.942500
-5.337100 -6.656800 -0.211200
0.938700 -5.659900 -2.467600
-3.150300 -2.821700 4.026600
1.852600 -6.476800 3.620900
6.039100 -4.045700 1.616900
-5.752900 2.693500 3.964000
-2.261800 -5.356400 -2.756500
-4.213500 -5.505700 -1.731900
-0.849600 -4.528900 5.281200
-2.050400 1.679000 3.603500
-6.854300 7.085200 -5.502400
-5.249800 -0.683200 4.393200
-6.510100 -5.414500 0.369000
-6.448000 -0.409200 4.293900
2.429100 -3.234200 -2.471200
-3.186200 -6.132200 -3.036100
-6.275300 6.151300 -4.759000
-7.193100 2.826600 -0.893100
0.830600 -0.825400 -3.119900
-2.104000 2.245600 -0.761800
-5.404300 -6.657100 -0.044000
-6.185900 5.482700 0.385200
0.938200 -5.510000 -2.515600
-3.152100 -2.677600 4.043100
6.056300 -3.906400 1.617400
-2.885300 0.011700 -2.332300
-2.985200 0.009600 -2.306300
-5.782200 2.834000 3.921900
-2.263100 -5.212100 -2.764200
-0.850600 -4.387300 5.320400
-4.292500 2.907100 0.699400
-2.052100 1.818100 3.479600
-6.890000 7.226200 -5.503400
-5.249700 -0.542700 4.387200
0.850000 -5.117900 5.006100
-6.200800 -5.300600 0.367300
2.428300 -3.088500 -2.522400
-1.682500 -1.444600 -3.898400
5.676900 -4.773300 2.118600
-5.467500 -6.649300 0.116700
0.938200 -5.364600 -2.572600
-3.672200 2.575100 2.112000
-3.767100 2.595600 2.076800
-3.149700 -2.537700 4.066200
-5.825900 2.973900 3.859000
-4.983300 -0.436800 -2.212800
-2.266200 -5.064200 -2.817600
-6.247500 6.309700 -4.759100
-0.849400 -4.236500 5.425000
-3.520200 5.365300 0.157100
-2.049500 1.949500 3.347700
-6.948500 7.367100 -5.503200
-5.248700 -0.404000 4.368100
-5.902900 -5.186800 0.366500
-6.277800 2.551900 4.441800
-1.682200 -1.308400 -3.866000
-1.909600 -0.314900 -2.669600
-5.534700 -6.649600 0.284200
0.937500 -5.207200 -2.710900
-9.386900 2.148900 2.528700
-9.413000 2.148300 2.429400
-3.149600 -2.395200 4.090900
-2.256100 -3.915000 4.424500
-5.863200 3.113900 3.805300
-5.575400 -2.174100 -1.975900
-6.236000 6.467500 -4.759300
-1.347900 0.582800 4.327500
-1.866300 -6.390500 5.252700
-0.849300 -4.089100 5.508600
-5.389800 0.554200 -1.893800
-3.483700 5.510400 0.211800
-7.018800 7.508200 -5.502700
3.470200 0.544900 -0.966600
-5.249000 -0.264900 4.332600
-6.250700 -6.657200 0.145500
-5.810700 -5.054300 0.366500
-4.988200 0.559500 -1.956100
-6.302900 2.690900 4.407500
-5.601700 -6.650000 0.451400
0.936700 -5.052600 -2.825400
-4.750500 6.079000 0.736100
-5.900500 3.254200 3.751700
1.472700 -6.563300 -0.408400
-0.851800 -3.950100 5.554900
-7.117100 7.646700 -5.505300
-5.249300 -0.126600 4.293600
5.945400 -3.529200 2.088700
5.935300 -3.639000 2.118400
-6.313300 -6.649500 0.306100
-5.765000 -4.920000 0.365800
-4.987500 0.699600 -1.925400
-6.342500 2.831600 4.346400
-6.090100 0.685600 -1.712900
1.441500 -6.562000 -0.603400
0.936800 -4.903300 -2.890800
-4.332200 -6.081300 4.383900
-3.425300 6.101600 -0.050300
-0.550300 -3.385600 5.622500
-4.187700 0.707800 -2.015200
6.055600 -3.351100 1.616700
-7.048900 1.897500 5.316500
-0.850400 -3.804700 5.597400
-5.393500 -4.723900 1.080400
-5.393600 -4.584600 1.076400
-7.232900 7.788400 -5.501500
-5.249900 0.012700 4.236200
-5.176900 -3.877400 3.093200
5.893100 -3.642600 2.215700
-6.377800 -6.645200 0.468700
-5.728800 -4.783900 0.365100
-3.750300 0.285100 4.036900
1.646200 1.028000 -1.685800
1.540000 0.929400 -1.776600
-0.596200 -6.060000 3.646500
-6.385300 2.971700 4.283200
0.935900 -4.755800 -2.953800
-7.048400 2.038800 5.332700
-4.988300 0.843500 -1.902700
-3.669900 2.495700 -0.615100
2.592000 -5.937600 3.332800
-0.850100 -3.664200 5.608000
-7.485400 0.720800 3.704100
0.749700 0.852300 4.093700
-6.442400 -6.641100 0.631300
-5.698400 -4.647600 0.365400
1.540700 -5.968800 -2.209900
-3.750200 0.421600 3.948500
-6.821500 -2.129700 4.047900
-6.426600 3.112600 4.221100
-9.200600 1.611000 3.431200
-5.101600 1.889500 -1.370000
1.310200 2.392500 -0.755000
3.750200 -4.729900 3.160600
-7.047400 2.180200 5.334500
-4.909600 5.612200 -0.621400
-3.662100 2.412200 -0.724700
3.545500 0.386300 -0.997400
-0.851500 -3.527100 5.589200
-7.094300 3.258300 -0.826800
4.271700 -2.947200 -0.378800
-7.493500 0.838300 3.788500
-6.502500 -6.629500 0.787300
-5.691400 -4.511600 0.364200
-5.304400 4.276400 -0.052600
-5.400700 4.424200 -0.099000
-3.750100 0.558900 3.873300
-1.816000 -6.067800 3.940300
-6.466500 3.254100 4.159800
-4.401300 -6.340000 -2.427900
-5.111500 1.769900 -1.444500
-4.849300 6.224500 0.645200
-2.469500 -4.492700 -2.880800
4.627700 -3.505100 -0.109100
3.749300 -5.011800 3.184300
-7.047600 2.320100 5.335700
-3.662400 2.311500 -0.817200
-6.575900 -2.051300 -1.783200
-0.849400 -3.389800 5.570300
4.850300 -3.619500 2.938900
4.749700 -3.618600 2.929500
-7.535000 0.887800 3.918700
-6.566800 -6.625700 0.949800
-5.705000 -4.371300 0.362100
0.550100 0.714900 4.158700
-3.750100 0.697900 3.811700
-3.036900 -6.533300 4.260100
-6.495100 3.395000 4.117400
-6.974300 -1.919000 -1.664200
0.796300 -6.232300 2.824100
-8.715200 -1.252400 2.343400
-4.352100 -6.202700 -2.428700
-5.125200 1.642900 -1.511400
1.641300 -5.821700 -2.250700
-3.658500 2.219200 -0.920800
-0.849400 -3.251900 5.558500
-5.438400 -3.506600 3.412900
-8.551000 2.936700 -0.169400
-8.492200 3.073300 -0.170200
4.621400 -3.622900 -0.191000
-7.584700 0.919800 4.060200
-6.623000 -6.606600 1.099300
-4.446100 2.936000 1.825800
4.259300 -2.084400 2.820800
-8.547700 4.599100 3.649200
-3.749900 0.837900 3.752000
-0.736900 -6.330200 -1.625100
-6.220800 6.782300 -5.058400
-6.501300 3.537000 4.106300
-6.090800 6.936300 -5.969300
-4.274600 -6.069800 -2.429000
-0.458000 -6.382400 -2.488000
0.240800 -6.093000 -2.462100
-9.393400 2.283400 2.529600
-9.423800 2.283600 2.428300
0.250500 -1.572200 5.744800
1.639900 -5.669400 -2.326900
-3.654900 2.125000 -1.022300
-8.087100 1.922000 -0.434800
-0.850900 -3.112900 5.575600
-5.465500 -3.431500 3.518200
