-6.083446 5.554170 1.112122
-6.184034 6.943920 -3.033362
3.872200 -0.066100 2.978200
0.218576 -2.681099 6.024765
4.195765 -1.187573 -0.204942
-6.054712 0.454453 -1.492182
-7.071137 5.859258 -0.372426
4.401965 -1.279634 0.712708
-5.058818 3.583118 1.134404
-5.366550 -5.423724 4.350568
-3.603441 -5.194686 -2.081829
0.325865 -2.867532 -3.447558
-4.474043 2.995580 0.709636
3.356225 -6.776556 2.079425
4.200000 0.285900 0.616800
-3.179266 -6.610665 4.683351
-9.079842 0.794706 0.514251
3.071874 -6.810792 1.113081
-8.920558 2.452243 1.741829
-3.550500 0.286100 4.073000
3.610034 -2.118930 3.534799
-1.268408 -6.590545 -1.430194
-1.859808 -5.821063 -0.763131
4.226363 0.524478 0.850992
-4.658235 -0.740197 2.441427
-3.449200 -4.528000 3.814000
-5.842245 -4.915238 -0.750153
4.008533 -0.735100 3.295334
-5.379200 4.158200 2.738200
3.437700 1.200400 2.668900
-1.848133 -2.155852 -1.128328
-1.398607 2.013669 3.327192
-2.403100 1.281600 -1.744600
-4.644847 -1.536830 0.006865
2.403700 -1.644693 4.671272
3.795626 0.306493 3.897636
-0.389471 1.530624 1.365365
4.158329 0.320484 3.398515
-6.950500 0.691300 3.755700
-5.737769 -0.934770 -1.917539
-8.500106 -1.675022 -0.230460
-1.763000 8.306400 -1.843600
-3.932486 2.023798 -0.897875
-5.862911 6.573267 -4.592031
6.256364 -3.800332 0.498552
-1.147029 8.592737 -2.179613
-1.401299 8.161071 -2.313752
-0.658035 -5.874377 2.813769
-7.047400 2.180200 5.334500
0.600118 -6.732633 2.333771
0.157995 -4.236818 5.190931
2.285510 -6.131338 0.238125
-1.530764 -6.901166 -1.686656
-7.557914 5.697469 -2.440681
0.350400 -4.661500 5.354600
-0.894720 -3.819094 -3.248345
-5.700382 6.402570 -0.444379
-8.494928 0.571782 3.698542
-9.069949 0.979045 2.580442
-6.376325 6.174378 -3.742678
-8.986200 1.338200 3.943200
2.682462 -0.604445 4.494902
-2.623353 -4.661439 3.802980
2.614477 -0.130247 4.343005
-4.734136 -0.369890 -2.087264
2.574525 -0.315838 4.224182
-1.844921 0.077314 -3.046795
2.972864 -4.538255 -2.410560
0.599235 -0.784443 5.317457
-7.973020 2.568411 4.409029
5.490766 -2.367930 0.911352
-6.448567 6.118993 -2.116838
-3.979049 5.150917 0.414624
-5.319600 -3.322870 -1.757627
3.348407 0.860111 0.548863
0.866205 -1.655568 -3.668483
-4.302036 -3.548824 -1.504403
-1.927910 -0.711019 -2.282639
0.453671 -4.215527 -2.931077
-4.332036 -3.923126 -0.623995
-4.676300 -4.399600 3.743200
-7.151762 -0.753165 -1.842197
-8.593900 -1.802400 1.947300
-5.117315 -7.011591 3.099105
-6.463307 -2.451066 3.911700
-4.727605 -6.177056 4.956643
-2.337600 6.388100 -0.766200
-4.573694 -3.730379 4.293721
-0.649000 -4.962100 5.135500
2.126104 -0.847561 4.012542
-6.477130 -1.450362 4.161887
-7.851896 5.484593 -2.513862
-5.316261 3.401971 -0.470906
-1.121070 -2.030293 0.853971
-2.328822 7.627774 -2.411355
-1.373766 1.593070 -1.154516
-6.498069 0.634108 -1.577847
-6.788486 -4.953121 0.092223
-6.953619 -5.966129 0.097889
3.871244 0.606089 0.877936
1.810413 -0.892358 5.699653
-0.995184 -6.437335 -1.583570
-5.622324 0.681049 3.389588
-6.644201 4.990470 1.260002
-2.642451 -0.961497 3.837304
3.559437 -5.735845 1.864866
-7.846473 4.651314 0.582622
-5.871732 -1.356886 1.577985
-5.084598 -5.252573 -0.816364
1.124600 2.975500 0.240400
3.788485 -5.102291 3.125952
-2.978000 -1.669600 -3.358700
-6.367800 -6.555900 1.687300
-4.130222 1.056902 -0.830853
-8.738231 -0.778809 1.454748
3.594747 -1.497347 4.122257
-5.996667 4.881257 -1.311344
-0.718878 -2.243377 -0.488290
-0.769009 -6.462828 -1.712080
3.784339 -1.122999 3.072398
-1.999671 3.138083 1.728396
4.131208 -1.568707 3.077412
-0.970300 -3.720700 -3.573500
0.262454 -0.275526 -2.413309
-4.477270 0.975253 -1.961241
-8.093592 -2.488358 3.512792
-7.724585 -2.674881 2.878054
-7.333675 5.004573 -0.080198
-7.161727 4.243122 -2.320564
-4.790822 -3.926637 -0.797225
-6.921013 8.146499 -6.110971
-5.042705 -6.541507 -1.922586
-7.666700 5.439900 0.327100
-3.165920 -2.568096 -1.916494
-7.804583 -1.673043 3.259028
-6.850145 6.373399 -4.784012
-7.331969 6.517617 -1.580711
-0.651361 0.878778 1.606521
-2.503595 -3.831408 3.535933
-3.709300 7.555500 -0.565600
-6.772078 3.373924 -0.615880
-0.777459 -0.285814 5.501143
-3.991135 1.290658 -1.840207
-5.479111 2.188035 -1.301363
-1.647008 8.248409 -2.259125
-5.253900 -5.270900 -0.733600
-0.788627 -3.122567 -3.826034
-1.507107 -2.397005 -4.086249
6.423816 -2.876738 1.401431
-1.150600 -4.826700 5.115900
1.735510 1.784938 -1.256978
2.437565 -6.748030 0.380061
-7.639573 -1.669606 3.620683
5.339364 -2.626078 1.548700
-4.782284 -3.195251 2.826330
1.824321 2.313197 -0.485711
-0.271100 -3.583600 -3.486500
3.489266 -6.296595 0.944305
-3.716785 -3.427790 1.652768
1.395200 2.450500 -0.617800
-3.187813 2.488684 2.939428
1.835672 1.655154 -1.351366
-2.660825 6.568985 -0.740754
2.523866 -0.354201 5.325767
-3.419610 5.709388 0.364045
-3.889319 2.217927 -0.897399
-4.853021 -6.158762 -2.608956
-2.592641 -6.236128 -1.680324
4.943116 -3.661662 2.225988
-5.903099 -2.526795 4.308272
-7.825641 1.414661 5.722906
-2.774462 2.037562 3.457802
-2.783084 -6.199279 -1.053445
-7.585294 4.325206 4.950394
-5.097960 2.940639 1.956306
4.243349 -4.505981 3.312353
-3.224383 2.146620 3.353433
-0.749691 -2.140734 5.460340
-7.935175 3.583456 5.614347
-7.648500 4.208007 -1.015563
-7.475680 5.968298 -2.720252
-7.428729 6.361640 -2.158425
3.502590 0.981361 -0.597574
-1.855380 -3.171416 1.892066
-5.750880 2.948664 2.842575
-8.552381 -0.426128 1.158923
-2.204600 6.687800 -1.098300
-6.390214 5.816223 -3.113046
-5.636647 -3.467962 4.083507
-3.486450 6.736709 -1.491634
-4.671366 -2.209789 -1.698685
-3.220198 2.238176 -0.630345
-6.025923 5.820724 -0.853323
-3.968626 0.133095 -2.314594
-3.206874 -4.362618 -2.485167
-3.250839 -1.757881 4.907637
-0.996491 -0.612325 2.206879
-5.297917 1.031406 -1.190431
-4.298488 -0.969271 -1.225094
2.044409 -1.389500 -2.122146
0.471910 -6.199112 -0.621518
-5.176387 -1.770711 4.208425
-3.082985 -0.432819 -1.754057
-0.640602 3.124492 1.373075
-5.298836 6.001261 -0.821516
-5.036910 6.223990 -0.619491
2.414258 1.553079 -1.280447
-5.231630 0.629916 0.922063
-8.760738 1.668712 2.025639
-5.143860 -0.805702 4.493700
-7.164601 5.456145 2.577284
-0.760867 0.736535 4.615283
0.061431 0.924472 2.331954
5.148540 -1.251146 2.087402
-1.531176 0.866412 2.356216
-2.911845 -2.880559 -3.089627
3.115287 -3.115185 4.376307
4.734107 -1.484951 -0.598446
-2.907512 1.200560 -0.878581
-6.625696 5.696651 3.091725
-5.853307 4.556520 -0.487693
-0.447874 -5.945676 2.959026
-1.545152 0.292691 -1.343194
-1.791649 -1.209325 5.381884
-0.658700 -6.117700 -1.430400
-0.173300 0.897500 -2.140700
-5.808180 -6.572058 -1.153423
-3.608527 -1.411216 -2.010241
-3.120400 -5.779600 -2.974700
-4.676200 -3.428200 3.855100
0.047169 -6.490311 -1.734037
-4.374035 -0.310289 -0.312611
0.010266 0.059547 -2.151512
-7.738694 7.433464 -3.925561
-0.638701 -6.640969 -1.863409
-9.273100 2.015700 3.228600
4.565466 -0.550044 1.073077
-8.705483 2.186605 3.313531
-2.654700 -6.154300 -0.863000
-4.533125 5.294470 -0.827074
-3.278959 0.189258 4.635316
-0.416796 -1.049315 2.258012
-2.709984 -1.296576 4.536175
-8.387518 1.107379 0.252894
-9.157365 1.067438 4.305379
-2.276552 2.988564 2.426004
-6.527000 1.861900 4.959200
-5.713223 -3.804788 2.440032
4.656259 -3.269994 3.187606
-6.212600 -5.421600 3.267900
-6.660931 4.840415 -2.688079
4.128026 -2.255718 -0.407204
-3.492539 2.874034 0.490800
2.501840 -2.282033 4.678242
2.567400 -1.908800 4.773600
-9.227904 4.237026 3.229800
-4.907011 0.523549 -1.105220
2.464179 -1.282223 5.055068
-2.887012 -6.039654 -0.714135
2.283793 -4.846394 -2.877250
-9.010458 4.333727 3.479573
4.041432 -1.940257 -0.625020
0.951900 -4.959700 5.044300
-6.922270 -1.873886 4.006082
-5.215550 -4.903790 1.290348
-2.859737 7.173212 -1.760659
-6.056487 -0.958755 1.937279
-5.073508 1.061650 2.114686
-3.787294 -4.078591 1.294695
-8.801039 -1.395358 1.049710
2.283040 -3.398935 -2.663659
-2.375899 -2.512752 5.613306
0.194249 -1.736852 5.579090
-3.971235 -4.676044 -0.965898
-3.963900 -4.512800 -1.113100
-7.389256 7.904381 -4.856033
3.663321 -5.016265 3.086607
4.416284 -0.110041 2.421669
-5.942609 7.273257 -5.604602
3.796341 -0.744916 2.311206
-3.584331 -5.087239 4.368899
-2.105688 -2.724704 -2.620052
-1.407490 0.799850 -2.748284
-7.691794 -0.102293 -0.290309
-3.844392 7.904004 -0.604566
-7.836000 -2.915900 2.045100
-2.680400 -1.887200 -3.698400
-2.096473 -1.126310 -4.015769
-2.527768 -0.347499 -2.596076
4.308511 -1.699116 1.931320
-4.568200 -3.194200 -1.564100
4.365651 -1.811278 1.087219
-8.726460 -1.662448 2.381382
-5.745588 -4.917788 -0.506419
-7.045416 1.959770 -0.147237
-7.355186 1.226612 -1.120193
-9.228500 1.603900 2.233800
2.281533 -4.659419 -2.046709
2.980805 -5.201199 -1.511437
-1.411390 3.000808 0.643949
1.671010 -4.699421 -2.249894
-6.486896 5.336823 1.610855
4.580184 -1.186127 -0.470290
2.364217 -3.981406 -1.670091
4.394000 -1.674900 -0.182000
-2.389100 -2.617400 4.939900
4.234011 -6.180888 -0.427053
-4.984681 5.115267 0.214825
-0.804022 2.211834 0.876517
-5.992179 5.147193 -0.566431
0.688628 -1.817410 -2.541572
-6.269161 7.175024 -3.502437
-3.935700 2.399100 -0.912000
-5.584139 5.387817 0.729516
-3.500100 2.383492 1.419768
0.447056 -5.257654 4.955374
-4.213006 -3.159048 -1.744229
3.761983 -5.154468 -1.224483
2.378324 -4.683204 3.570139
-1.273963 -6.944762 4.896595
5.803100 -2.836300 1.499400
-8.697200 4.328300 0.915400
4.686475 -3.392120 3.091535
3.576657 -6.311111 0.298573
-1.298699 3.410725 0.484855
-5.958371 -6.477900 1.998825
2.146575 0.168416 4.589757
-5.806226 -6.781909 1.116708
-1.199009 1.176493 3.579257
-4.401834 4.448370 0.825706
-6.889067 6.065529 -1.766272
-7.704195 5.784526 -0.393606
-3.589617 -5.724629 3.608428
-7.073542 -4.087060 -0.203558
-4.999900 4.319700 1.237800
-2.696230 -1.687076 5.127980
-3.527193 3.065293 0.843907
-9.673357 3.043466 1.267800
5.677640 -3.461680 1.348777
-5.582889 -2.542732 0.812014
5.181216 -1.646658 0.793657
-7.240721 -0.655522 -1.300762
-9.642779 2.616657 1.406852
-5.961166 5.849384 2.171078
0.340800 1.773300 -1.683900
-4.239827 -1.191818 -0.609356
2.801534 0.658026 -1.451498
-7.199798 2.483080 -1.020203
-7.963503 5.358697 -3.226861
-2.562472 -2.146973 -3.364507
-4.741720 -1.307345 -0.620740
-5.928000 5.441500 2.836100
-5.058553 -5.079502 1.747350
-4.741961 -4.910098 1.949722
-9.434965 2.746024 3.019948
-7.824994 6.200792 -1.550833
-5.538888 -2.854921 3.868293
-5.839664 4.648093 2.710235
2.864678 -6.059515 3.325788
-0.650000 -4.666300 5.306100
-2.844500 -0.961400 4.484800
-6.974300 6.447300 -1.611900
4.097344 -1.318065 -0.234493
-5.328008 -1.159905 5.053118
-7.232217 7.089749 -2.268943
-5.113021 -1.500784 4.710454
-5.107400 5.314600 -0.445300
6.033000 -3.213700 1.214300
-4.848790 -0.492297 1.129307
-4.315944 3.277533 1.817504
-8.200823 3.414164 -0.789959
-0.328413 0.158955 -3.308735
-3.386316 -1.717667 4.480759
-3.148459 -0.794286 4.422270
5.605146 -3.081751 1.927393
-4.448898 -2.052967 3.792903
1.158895 2.005248 -1.046572
-0.352211 2.387032 1.761963
-1.293403 -2.224097 -0.442830
3.215900 -5.954100 2.707000
-8.551371 4.658462 1.525570
-2.505030 1.088068 2.326234
3.333100 -5.924400 2.704200
-8.098585 -2.108767 3.691156
-3.197776 -3.380955 -0.329864
-5.498355 -5.901414 0.146510
-0.962481 2.257294 3.183534
2.886711 -6.403217 0.735326
-6.175203 -5.596601 2.609593
-5.441143 4.690770 0.762390
-1.314250 -2.069280 -3.828212
0.694521 0.230348 4.340239
-4.702240 -4.577094 1.490380
-5.798043 4.723118 -1.305823
-5.710872 -4.981444 -1.262918
-3.962400 -4.799800 -1.087700
-4.093808 -5.735898 4.342335
-7.723599 -0.663027 -1.499915
-7.335059 4.084702 -1.369776
-3.553900 -5.588700 -2.752600
-3.913586 -6.201741 4.325507
1.850610 -5.661632 -2.163164
-9.165202 4.457144 0.716156
-3.029407 -5.909301 -2.452549
-8.753701 0.280091 2.287136
0.833154 -0.239319 4.843206
-4.530131 -0.073486 -1.591485
-3.308462 1.578353 1.749205
-0.148600 -5.890676 -2.093547
-5.404382 3.237141 -0.223921
2.103741 3.240179 2.250489
-0.855328 0.959922 -2.657281
-5.052642 -6.890278 2.772661
-8.127743 1.497571 3.953764
-2.783443 7.095248 -0.987087
-7.073898 2.865512 -0.849848
-6.375696 3.615333 -0.800856
-8.559895 1.058782 3.638801
-4.298993 -5.921656 3.491286
-2.639969 -6.318450 -0.808372
-5.900463 4.926188 3.691144
-6.706052 2.710238 -1.081062
-3.056180 7.099839 -1.187601
-1.656462 -5.672980 1.665699
-3.888901 1.402753 -0.638473
-7.524744 1.313477 3.149104
-8.041577 8.086426 -5.357798
-3.967549 2.761207 -0.188531
5.883606 -3.463622 0.380607
-7.429766 7.872915 -5.426044
1.805989 -3.774282 4.908932
4.397100 -2.235500 -0.278500
-4.566300 -6.321000 -2.127700
5.710176 -4.148060 1.816960
-5.403217 4.818742 -0.688141
3.277321 -3.054582 4.283465
-3.148000 -2.251100 4.108600
-2.656537 -6.201537 0.894771
-8.421465 -0.558879 2.314888
2.397285 -3.739294 3.902442
-5.322872 4.966306 0.774801
-9.499366 1.907941 0.748348
1.632075 -2.745690 5.530679
-4.862418 1.270899 1.270137
-3.619500 -1.954178 -2.032729
-2.603768 -2.598807 5.092149
-1.055861 0.908839 -0.022082
-5.579143 1.132945 -0.248856
-2.444336 -2.354471 5.185990
-3.163002 -5.368578 -1.101788
-6.652184 -5.494638 0.528343
-2.217405 1.014305 -0.907262
4.517921 -2.846560 0.470603
-8.716001 2.782920 4.523350
-5.616700 -6.634700 1.865500
-6.223600 6.782200 -4.959300
-8.018740 -2.555914 2.747107
-3.955092 -5.190226 4.036613
2.491275 -1.641220 4.448226
-5.916770 5.028362 2.886856
-6.788723 -0.623415 -1.214260
2.719200 0.137600 -1.734900
-4.644282 4.261161 -0.072055
-4.606991 3.228893 -0.711642
-7.400444 5.817140 -0.121990
-8.259578 -3.083430 -0.074444
-2.891229 -1.214369 5.622981
0.306426 0.563859 2.083806
-5.524143 3.944345 0.354494
-4.521096 -6.622424 -2.903820
4.152801 -0.743309 3.695174
-7.313846 -5.959814 0.796378
-7.637623 -6.399047 0.808009
-3.032259 -6.367565 -2.095110
-6.303116 6.425039 -6.365469
-1.990300 1.848369 1.027724
-5.278700 -1.450300 -2.152900
-6.639314 5.344679 -5.978109
-6.035468 -3.649497 3.984590
-2.451463 -1.773204 -0.790131
-2.966200 -3.081600 -2.946200
-7.783749 -2.115936 -0.159030
-0.132022 -5.321292 5.060355
-7.111389 6.993770 -1.267933
-3.393974 -5.476947 4.831243
-7.546523 6.536551 -3.608247
-7.708910 6.571407 -3.990904
0.248643 0.591295 -1.719908
-2.427504 2.391648 1.947559
0.886308 1.546607 -1.128611
-6.545426 -2.174899 4.162494
-8.798100 -1.391600 0.548700
-4.680161 1.138876 2.982975
-6.707938 5.764583 -2.292128
3.221045 -3.442024 3.826241
-6.588400 6.421000 -2.045100
3.414617 -4.360289 3.181685
-7.388200 2.085200 -0.799700
5.070700 -4.599200 2.923300
-0.790800 -6.151400 0.796700
5.148645 -4.859420 3.269938
-9.337000 1.878900 2.429200
-9.314056 1.240197 4.502446
-0.094483 -0.407388 -3.266276
-2.650609 2.590054 1.635610
2.876083 0.723466 2.557666
-3.550905 -4.741231 -2.847807
-3.560643 -0.699288 -2.562272
-4.051442 -6.839068 4.025167
-4.369900 -3.191300 -1.606200
-0.778598 -4.626564 -3.593886
-6.779582 6.348910 -1.028772
-6.891592 -4.021562 1.650247
-1.363105 5.866905 -0.649163
-3.245686 -5.318439 -1.256703
-1.578448 6.240666 -0.952725
2.889622 -0.901533 -1.804418
-9.178425 1.753592 1.584700
2.736746 -5.579384 -0.666644
-1.947369 -2.182017 5.282383
-3.089474 2.531628 1.840989
-2.343190 1.662798 2.672912
-3.346808 -3.758157 3.839154
-7.620100 4.998600 -1.387600
-3.629420 1.821410 3.184305
-9.287109 1.790668 0.871642
-2.640147 -1.678647 3.001659
-2.759764 0.437840 -0.908200
-6.420080 -6.318416 -0.447554
-0.869097 -6.460309 4.674351
1.381642 -3.299324 5.528134
4.734100 -5.111400 -0.367900
4.976764 -5.033854 -0.235262
-3.034136 -2.303130 4.948291
-5.309877 -3.715634 -0.875929
-0.138500 -5.752000 4.686500
-8.086124 -3.482599 1.412000
-2.299378 -6.654619 4.823557
0.233874 -3.489147 5.641267
-6.946334 6.690739 -3.242929
4.585413 -2.073416 -0.138342
-4.231870 2.911718 0.070977
-5.443856 -4.756657 3.401039
4.384200 -1.956400 -0.278900
-3.597330 -3.404813 4.531946
1.615998 -4.038834 4.857702
-3.695400 -6.506500 4.271800
-1.980294 7.537737 -1.806381
0.432900 1.445300 -1.929500
-0.478333 1.737299 3.369544
-6.581900 5.485200 0.425200
-7.317708 5.832118 -3.683455
-6.619300 5.509200 0.556400
-7.073139 5.406102 0.428172
1.133952 3.540019 1.751672
3.712700 -0.715000 3.627600
0.133200 -6.141200 -0.129000
4.823973 -3.008113 1.905877
-9.168545 -0.412670 0.552033
-7.864671 4.868303 3.188361
-7.646221 -2.360502 -1.074264
-3.335911 -6.651480 2.574973
-2.746284 -5.987610 1.995292
-4.463971 2.508381 2.698459
-7.848100 3.724000 4.979100
-2.286000 0.161800 -2.396300
-2.960398 -0.256171 -1.919603
-2.539412 0.101344 -2.421998
-2.340632 -6.548059 5.044156
-8.822326 3.468928 1.611967
5.402932 -2.897080 1.607957
-4.511817 0.632872 -2.326774
-0.780295 -4.551209 4.997842
-0.502091 -6.334839 2.316721
5.550406 -2.552179 2.252015
-5.879500 -6.659400 0.042600
2.439973 -5.682985 4.100937
-1.388820 3.238071 0.351394
-1.439994 3.012014 0.897353
-5.691650 -5.634429 1.110249
-7.110734 3.339555 4.931685
-2.363933 -3.623604 4.355156
-5.079117 -5.993162 -1.845177
2.642085 -4.466687 4.642442
-6.163062 4.203598 3.069505
-2.222785 -3.070758 3.705378
-4.224712 -2.874448 3.509640
-0.487012 -4.590807 -3.410776
-7.537111 6.299697 -3.374357
-5.842072 -2.493136 -2.136075
-6.165718 -3.854209 3.094167
5.797800 -4.486500 0.616100
-5.834377 -6.547976 1.749519
-2.751474 -3.529887 3.829728
3.185041 2.080822 1.327153
3.788563 -1.410834 4.336664
4.376865 -0.102548 -0.270519
-0.348429 1.835497 -1.694563
1.747000 0.440000 4.428800
-4.632998 4.347138 1.070508
1.078660 2.931262 2.265754
-4.637872 4.054761 0.367236
-3.806799 -4.245377 4.471726
-2.554863 -6.796949 -1.952578
-3.256971 -6.369702 1.671734
1.291799 -6.050950 -1.617031
1.892328 -6.454678 0.143423
-2.447905 -5.425919 4.451525
-8.035143 -0.516299 2.963024
-5.398299 -5.350374 3.909133
-6.700500 -6.270800 3.249900
0.089326 -4.077723 5.306172
-1.295376 7.151536 -2.164825
2.250351 1.423752 -0.417122
-2.562087 -5.722323 -2.542282
-6.015850 6.352572 -0.521369
-6.971100 7.440000 -4.338500
0.325440 -6.284450 -0.800446
-4.573956 -4.806111 4.055380
-3.630859 -4.991812 5.027890
-6.134200 1.828800 4.101300
2.149590 -6.681344 -0.161256
-4.368743 6.610815 -1.041176
1.107023 1.982492 -1.805145
-3.990321 -4.171437 4.595417
-4.331767 6.094209 -1.080133
-4.949800 0.288500 4.111100
4.761610 -1.874992 2.514707
-2.730961 -6.463869 -0.704627
-1.932192 2.158371 -0.377531
-3.363879 -6.448807 -1.091532
1.752337 -2.948389 5.079835
-4.321475 -0.352056 -2.421720
0.133160 -1.644328 -0.470885
-9.120791 3.085523 4.395282
-8.789611 3.418405 3.650995
-5.852967 2.487413 4.009358
-2.774687 -2.204217 -3.772863
-1.731741 1.368917 1.869488
-1.834482 -5.219404 5.120244
-6.369000 -3.567800 -0.564200
-5.155558 1.196202 2.919267
0.374770 2.702458 -0.229902
0.677139 -6.429218 4.656537
-6.499743 -3.605072 -0.568322
-0.972000 -3.437400 -3.584800
-4.076567 -1.160504 2.769305
-6.178174 4.581389 3.768081
-5.092710 -3.131749 -0.410440
-7.392000 5.466000 2.905600
-0.442576 -1.777142 -4.367722
2.719354 2.356800 3.084463
-8.612727 -1.693884 2.116064
-2.594319 -2.844343 3.652533
-5.643197 -2.455543 3.668002
4.023909 -2.880610 -0.446257
-2.751466 -1.338216 5.026461
0.150700 -5.099700 5.132700
-6.703789 6.775921 -4.900789
-2.547749 1.512980 3.825823
-9.434239 1.986523 3.388911
-5.786397 -3.021748 3.984432
-2.528809 2.633276 1.907745
4.032690 1.006435 2.994424
2.740300 2.156000 2.122100
2.869600 -0.082000 -1.699300
-2.164470 1.200314 -1.731832
1.732938 0.585086 4.078631
-1.814740 -2.377099 -1.409911
-3.776700 -1.873800 -2.093700
2.046650 0.357367 4.424464
-1.773089 -1.114159 -1.169477
-7.391913 6.628608 -3.276767
-2.708416 0.827409 -1.013792
-1.758866 -0.378777 -1.205049
-2.161327 -4.393372 3.571447
-9.350351 3.300454 1.935602
4.343783 -2.626629 0.378275
-7.955129 6.807312 -4.409599
-5.967578 5.447530 -0.314339
3.506669 -2.570924 -1.815295
-6.428330 4.999763 -1.719535
-0.049082 -3.323070 -3.417711
-3.932374 -3.938061 4.027597
3.136742 -1.350070 4.849786
-5.181290 1.250989 4.065848
-5.959576 -5.291712 3.551557
-5.789900 1.257800 -1.597300
2.937914 -2.701288 3.848475
-5.588700 0.835600 -1.812800
1.666644 -4.232662 4.828794
-1.406203 -1.663850 -0.638484
-3.894231 -1.619757 4.230327
-0.616459 -0.758964 2.191443
-6.979253 -1.930330 3.994008
-6.545588 6.499294 -1.597054
0.636800 -5.200200 -2.769400
-1.764587 -1.476619 -3.901899
2.839001 -0.292707 4.429265
1.403717 -0.762693 4.133387
-5.648000 -3.862000 -0.459100
-9.217548 3.037467 1.511267
-5.479666 -3.914544 1.961728
-3.946408 2.273388 0.422788
-6.137039 -2.172765 -1.810799
-6.634470 6.390524 -4.454741
-2.782973 -5.320704 4.816706
-3.920074 0.982754 -1.434274
-0.800868 -1.450435 -1.316571
-2.218890 -5.921386 4.691988
-1.943536 -0.909465 -3.145756
4.624092 -4.507392 2.506365
1.508400 1.472800 -1.563200
-8.847380 4.080277 2.430767
1.789820 0.512702 -2.354656
-7.670498 4.460797 -0.181805
-0.764386 0.837027 0.898171
1.661248 1.370008 -0.817011
0.107183 3.216461 0.553591
-1.994158 7.125925 -2.751806
-9.009896 1.744378 1.204258
0.851195 -0.929965 -3.192925
-3.721108 6.550721 -0.204372
-6.445289 -6.857900 1.354994
-2.506149 1.192736 3.808170
-4.023527 2.789510 1.278980
-0.426351 -2.106476 1.475067
-8.727137 -0.975958 -0.553173
-1.730454 6.907815 -1.997486
-7.731327 5.535378 -1.368454
1.713385 -0.996304 -2.727595
-4.113377 -1.139629 -2.437593
-5.273443 -3.019543 -0.591035
-8.374908 0.622705 3.857588
-1.983668 1.905315 0.757689
-7.438900 -1.257800 3.991500
-8.600000 3.525700 4.577900
-5.773347 -1.606426 -1.010441
-3.451100 1.253200 3.497300
2.409266 2.141568 0.834165
-0.178362 -5.646163 4.956891
1.019395 -1.195034 -3.820548
-2.671803 -6.286880 -1.171852
-8.442600 -3.182955 0.814501
-0.144256 -5.964825 5.438538
-2.012866 1.312240 4.636239
-1.489368 6.742375 -2.166996
-3.120558 1.462603 -0.393809
-6.249257 -5.253405 -0.380515
-2.902760 2.427871 2.643156
0.808033 -3.026541 5.309714
2.946590 -2.725406 -1.575125
-6.996716 7.492210 -4.489690
-1.343956 -0.073141 -2.365059
-8.840458 -1.185396 -0.528459
2.061980 -2.513210 -2.458507
-3.922200 -6.367400 1.079000
-2.315638 -1.136867 -1.961740
-8.704915 1.449707 1.347913
-1.595222 0.443892 3.982093
2.928712 -5.983403 2.717403
1.456470 -0.709087 -2.965760
-2.921998 -2.446830 3.961161
-5.998783 3.245337 -0.909622
0.061144 -6.146304 2.840668
-5.162000 -4.760330 2.968557
-5.707767 3.787123 -0.717776
-0.040148 -1.991542 1.576134
-5.823221 -0.383700 -2.548126
-5.672964 0.211898 4.161114
3.282300 -0.040929 4.001417
-5.975078 -4.589813 1.485824
2.279500 2.477500 2.235100
0.534300 -4.753600 -2.974000
-4.532272 -6.731136 2.351029
-0.427754 -6.888035 2.677894
2.237100 -4.948000 -2.316500
-2.224400 5.902400 -1.141400
1.309583 -1.925953 4.659936
-1.697358 2.807367 2.233828
0.823147 -4.894067 4.586247
-0.394987 0.320722 1.093352
1.417588 -1.919240 5.125427
-6.592200 1.519600 -1.042500
-0.769657 2.289851 -1.567654
1.615271 -2.060205 6.067671
-3.151900 -6.487600 -3.065900
-8.989800 3.518500 3.620900
-8.990700 3.380600 3.521600
-6.402112 5.322874 0.439303
-4.703600 -0.899422 1.757405
-5.959768 5.431639 0.939106
3.879375 -4.387675 3.309680
-4.750759 4.459950 1.169916
3.217900 -0.705800 4.139900
-6.703237 -6.335905 0.167518
-3.474527 0.898175 4.007520
-6.814500 4.437200 -1.682600
-5.750596 -1.561908 -1.530090
-3.679004 4.391946 -0.318427
-3.784632 4.717415 0.215299
-1.635226 0.190437 -1.387819
-4.041078 -6.388249 3.728236
-5.734982 5.600251 0.019321
-3.258535 2.072864 0.542688
-2.726973 -5.252021 4.896077
-1.412237 -4.356426 5.587892
-4.850100 -2.672300 4.159200
-8.926182 3.428347 1.684640
5.180600 -4.460000 2.908500
-3.418884 -3.557488 -1.821430
5.184085 -4.654867 2.268202
-6.175100 7.533300 -6.147400
3.925012 -3.311861 -0.870144
-2.629983 -2.040151 4.956405
-6.201900 7.397000 -6.184000
0.336193 0.337418 4.527864
-7.219300 5.280200 3.425300
0.281084 0.725945 3.991980
1.030809 -3.939772 4.975618
-1.540597 -6.833814 -2.469781
-2.394923 -0.305593 -3.035835
5.584300 -2.771800 1.861500
-8.467538 2.376032 4.520898
-4.974300 -2.467700 -1.779900
4.149642 -5.493400 3.032437
-1.634412 -2.763401 2.471337
3.677000 0.967500 0.024300
-4.959845 3.409728 -0.266394
-1.096806 7.813685 -2.762720
-8.851199 2.338628 4.895656
0.818768 -2.533746 4.798033
-8.212841 2.425984 4.335485
2.607415 -3.464001 -2.197888
-2.714997 -0.324785 -1.717594
1.534187 -1.308875 5.048764
-1.694140 -6.134632 4.166765
-0.768077 -1.432032 5.532152
2.076356 -0.355989 5.346822
3.474573 -1.830117 3.369817
1.033169 2.455913 3.958734
-6.882235 5.215715 -4.554698
-6.498211 7.401109 -5.141490
0.188935 2.396053 3.738021
3.105271 -3.070973 -2.328971
-7.613652 -0.503261 3.988852
-4.962294 -6.260718 4.480472
-0.188416 -1.500889 -3.136383
-6.363019 1.568437 4.364360
-1.830955 -6.510754 -1.376287
-0.692767 -6.398977 -1.499505
-2.073412 -5.478408 -3.144611
-0.304497 -4.394521 -3.525657
-8.440922 2.586591 4.945863
-2.134603 -6.975279 -1.972004
-5.538946 -3.811970 -1.334107
-2.705000 -6.651700 -2.652800
4.748506 -5.700461 1.299454
-3.031100 -6.158400 -0.750000
-2.534203 -3.891574 5.151738
-7.737501 -2.480764 3.619771
1.763000 -6.170600 -1.871100
-3.196656 -1.264067 -1.951926
1.592052 -5.431723 -1.584745
-2.643385 1.666743 -1.291175
-6.222926 -0.342378 -2.013430
2.002075 -5.900799 -0.467118
-1.579100 6.979600 -1.601500
-6.296062 5.654767 0.211140
-9.408630 1.219493 1.454876
-5.599972 -5.766120 1.048919
-9.113779 3.001232 0.110951
0.948965 0.119569 4.116138
-5.520753 3.989196 3.114366
4.642798 -1.570034 2.041488
-7.568735 -0.033476 -0.536596
-6.519029 0.133940 -1.483047
-1.335000 2.435600 3.098100
-8.544800 -1.010600 -0.155100
-5.069750 -0.971185 -0.510396
-6.088900 0.544500 -1.776100
1.251288 -6.489892 -0.636251
-3.618819 -6.435325 -2.108963
-1.834060 0.979542 -2.724616
5.277503 -3.055143 3.084535
-3.518855 -6.296924 4.865574
1.139735 -3.943819 5.420337
5.076600 -5.537400 1.521400
-3.740432 2.044628 2.037782
1.296810 -5.624704 4.957163
-7.639939 -1.614833 -0.839959
1.036966 -5.394011 4.210831
-6.895191 7.108085 -1.917045
-5.950577 5.308575 2.292743
-0.118324 -5.901695 -2.022825
-4.858304 4.096994 0.151761
4.722281 -4.272744 2.770207
-7.983538 -0.717716 3.382226
-6.308515 -6.784653 0.331521
-3.158808 -0.792946 3.547944
-7.395207 7.761764 -3.683873
-4.833122 -1.039207 4.705866
-4.838511 -0.517205 4.828697
-1.170625 -2.586789 -4.031992
-7.059994 -3.224673 -0.580508
-5.925800 -5.327900 -0.132700
-5.956262 -1.329769 -2.125600
-5.398150 -5.066136 0.754260
-6.220781 -0.412349 -2.035125
-2.208338 -2.987584 -3.845897
-3.170700 -5.631300 4.963500
-6.212346 4.418152 -0.426118
-3.744870 -5.442822 3.450156
2.667300 -2.868200 4.381800
2.098208 -5.648713 -1.387550
-9.303900 2.967500 2.425200
-1.184016 -3.237516 5.387452
-3.632609 1.150027 1.488168
5.520800 -5.062600 0.621300
-0.167596 -4.206557 5.085081
4.161500 -4.010900 -0.407400
-7.968063 6.211374 -2.088566
4.158072 -3.848819 -0.303067
-2.562635 -1.450646 5.443902
-1.120408 7.316205 -1.907707
-1.479695 -0.778468 2.679040
2.075349 1.367304 3.299519
-6.093260 -4.363760 1.259421
-6.815091 6.247211 -1.083473
1.470054 1.423892 3.338354
-5.314873 4.677346 0.261357
-2.372295 -1.474270 5.114851
-1.717300 -0.147700 -2.440500
-5.070331 4.881238 0.133036
-1.184356 2.282944 1.560691
-2.861436 -0.934060 -2.097212
-2.982809 1.233959 3.354575
0.178440 2.544696 3.628180
1.076497 1.922405 3.076089
-2.514333 -5.526504 -2.325277
-1.734917 8.791323 -2.460294
0.330939 -0.131147 5.519669
-1.161154 -6.422016 1.445075
-4.400870 -3.683878 4.191329
0.525090 1.804173 3.637070
2.934015 -1.789454 -2.447058
-4.955728 -5.201649 1.899949
3.978444 0.337728 2.218275
-6.094706 4.895825 4.256151
-2.034088 -6.049389 -0.584450
-5.726027 4.623028 0.324390
-6.477426 -1.639975 4.163881
-2.095254 0.834277 -0.494900
-6.004395 -2.828429 -0.899464
-5.600206 -5.131965 3.173681
-7.186426 2.859352 -1.278431
2.252128 -2.341144 -3.035357
-4.888214 4.966805 0.591192
-1.787050 3.004964 0.518513
-4.814600 4.427000 0.342000
-1.447386 3.603863 0.808069
-3.258064 5.935710 0.767918
0.270214 2.708003 -0.757034
-8.879300 -1.119100 0.747100
-2.035134 -6.973650 -1.918136
-2.008622 -6.240256 -2.616405
0.093271 2.713674 2.537627
-6.228200 -5.414800 3.468300
-4.274113 -0.239842 -0.650689
-5.758038 -6.288413 1.385505
-0.178293 -2.423283 -0.634640
-2.425536 0.803042 -1.233199
-4.031514 6.614920 -0.896555
-4.216700 6.366000 -1.073400
-7.186048 -1.866251 -1.451266
3.891300 -3.964100 -0.677300
-9.327747 5.016300 1.818977
1.347900 1.871100 -1.393300
5.056514 -2.735089 2.030046
2.833395 -4.759405 -1.500115
3.992516 0.553432 1.224270
2.231300 2.473900 2.359900
2.672034 -4.554856 4.242587
-4.399898 -6.271778 -2.007599
2.805901 -4.513761 4.982213
-4.514365 -0.947405 -2.700366
-8.867120 2.268635 0.900445
-5.353374 -0.115221 -0.408715
-6.738600 4.635200 -2.443500
-1.604546 -2.355421 1.276263
0.710976 0.129722 5.186722
-9.134686 1.805046 1.581296
1.583241 -0.054135 4.563004
-6.079000 -1.608800 -1.978100
2.732872 -2.314635 3.525153
-6.218145 -2.102828 -2.411146
2.607600 -2.730100 4.473500
-3.156826 -6.242966 -1.818503
-5.910400 -6.553100 4.009800
-4.873445 -1.949575 1.705521
-7.794500 2.811700 -0.684100
1.920600 -1.657600 -2.764000
-6.049838 -1.468898 -2.327767
2.891553 -2.790678 3.727672
1.065881 -6.315793 0.357968
3.720913 -4.535921 3.843388
-6.493308 -4.187326 0.590828
-9.220453 2.648400 0.878585
2.482657 -4.602007 4.064836
-6.359215 -3.935010 0.082056
-7.985021 2.259018 -0.833988
-3.774357 -1.854828 -1.846571
1.294489 -3.783709 -3.484303
-1.705154 2.533595 -0.464959
-2.892641 -0.648269 -3.788653
-6.878501 5.328223 1.876817
-6.700600 5.628100 2.269400
-1.740985 -3.938307 4.865598
5.335182 -4.905396 2.348615
1.533891 1.424716 3.646912
-5.037205 2.568067 3.191965
-6.321601 -1.466286 -2.149086
-8.738723 0.584051 0.123998
-1.221631 -2.680309 5.477606
-0.570800 2.947900 2.488300
-4.898800 4.871500 -0.337300
-2.046451 -5.834775 -3.126605
-3.672400 -5.100493 -2.078890
-0.949000 0.725700 4.346100
5.525200 -2.792700 1.987300
-6.672306 1.746192 5.434443
-6.835459 0.199378 4.263055
-8.657300 -1.391800 2.345300
0.524347 -5.554391 4.662641
-2.895540 -6.355122 0.429531
-0.441036 -0.016124 -2.304976
1.112109 -5.443372 3.778514
-6.558100 6.792800 -3.182400
2.094573 0.828936 3.714103
0.392792 -6.213215 3.213718
-7.698246 6.289688 -1.738878
-4.836940 -7.216771 3.149188
-2.713425 -4.945303 -2.206023
-7.657886 6.557777 -2.214357
0.154728 -0.098744 -3.119041
-0.015338 -6.035210 -1.108432
2.534385 -5.129613 -1.550444
3.178834 -5.497356 3.350457
-5.996000 2.123700 4.136200
-5.042400 1.394600 -1.651800
-2.843205 -5.249875 -3.355566
-6.219516 1.810399 3.996670
1.073453 -0.155981 -2.441435
4.249100 0.147200 0.517300
2.243193 2.538365 -0.659938
-6.523536 -1.001305 -2.144964
3.438854 -2.342000 4.545962
2.287765 2.532074 -0.323773
-2.562750 -6.478786 0.458047
-5.936798 -0.966155 -1.931173
-1.459685 -3.323949 -3.489337
1.059322 -6.503539 -0.860616
-1.008035 7.868278 -2.537204
-5.840100 5.404700 2.868300
-5.402580 -1.198367 -1.683016
-3.278928 -3.788286 -2.240616
-6.485404 -1.216447 -1.742023
0.098209 -1.342178 1.006820
-5.373451 -1.778401 -0.694395
-1.763638 -0.913574 6.202117
-0.285161 3.366647 0.415693
-0.323400 -0.393500 -3.174800
-6.808772 3.541994 -1.273671
-6.081254 -0.938217 -1.457985
-6.993455 -0.246483 -1.103675
-9.080298 1.020657 1.126413
3.912548 -4.142936 -0.926509
-0.896853 -0.274531 -2.845006
-0.047132 -0.212821 -2.988597
-2.657216 2.885679 0.849427
-3.627468 -2.953137 -1.714907
5.424796 -4.619582 2.588731
-3.014648 -0.839357 4.286030
0.209965 -4.432364 -3.251571
1.256019 -5.427042 4.847828
-9.270939 4.988896 0.917244
-1.310266 0.664985 2.026087
0.463996 1.265069 4.511966
-7.943206 4.832150 0.147312
-7.107290 3.518634 -1.097856
-4.806598 -1.553613 -1.566682
0.668275 -5.945819 4.535060
-4.051100 5.125800 -0.613700
-7.873176 7.443215 -3.701124
4.219523 -1.991273 3.457956
-7.017011 2.606157 -0.751649
-7.907860 2.679955 -0.624978
0.415890 2.711997 3.432144
-6.577055 -6.428169 1.129191
-7.527198 6.577616 -4.743566
4.648282 -1.071301 2.142311
-5.769361 5.608733 3.086833
-5.178633 -1.037230 4.260547
-8.872144 2.688649 4.283828
-6.281628 3.885801 -0.260625
-6.263799 4.299784 -1.523088
-2.885481 -0.005108 5.180292
-5.589495 3.511002 -0.082991
-9.175791 0.614246 0.862641
-4.678172 -2.912658 2.418147
3.388129 0.710177 2.950670
-4.696800 -3.042719 -1.135517
-1.339316 -2.008931 -0.403611
-8.471427 3.038104 3.692406
5.185054 -4.059753 0.373434
2.593913 2.337915 0.460370
-9.282987 4.459792 1.389403
1.498489 -2.570958 -3.535267
-4.655783 0.071263 2.907553
4.100152 -5.521559 -0.091199
-0.996812 8.202420 -2.726644
-0.077779 -6.667482 -0.592952
-5.977895 0.992507 -2.036229
3.653534 -2.666994 -0.098061
-5.036694 0.306950 -0.194832
-4.231277 -5.830472 4.594414
0.240866 -5.699786 -0.603870
5.098965 -4.575104 -0.119012
-7.529081 -0.202173 3.362639
2.410242 -3.061359 5.036938
-5.834700 -6.645000 0.759400
2.792963 1.171673 0.082581
3.376014 0.910349 -1.349728
-5.206361 1.333616 -1.693813
0.934505 1.700570 4.033321
-2.818453 -1.630481 -3.256003
-2.167702 3.023971 0.835519
-7.274902 4.557128 -3.330265
1.982446 0.484052 -1.632134
-7.919000 5.335463 -2.019266
-1.676998 2.956049 -1.189781
-6.344365 -4.978406 0.436620
0.474043 -0.495338 -2.910823
0.504314 1.901927 3.326059
-1.513016 1.489865 -2.288809
-6.032451 -0.926754 -1.878676
0.295315 2.857154 3.380859
-5.257700 -4.697400 -0.686600
-1.233188 0.640047 -1.712096
-8.554575 2.875782 3.190443
2.985107 2.251622 1.519496
-7.487300 2.083800 -0.772500
-3.221397 -1.107325 4.630346
3.936300 -5.544700 -0.413200
-2.588514 1.311698 2.855731
3.880800 0.554000 2.516700
-1.268254 6.112697 -1.359953
-1.860044 -5.995906 -2.155545
-0.390143 -5.134956 4.560757
-1.173173 6.279105 -1.121405
-1.601894 -6.657802 1.305452
3.579428 -0.780390 2.129497
-5.269300 5.178300 1.628100
2.719700 -4.917900 -1.971500
-5.288682 4.725458 1.154233
-2.640624 1.848364 -1.857643
0.739748 3.064616 -0.851265
-3.148800 -0.120000 4.406800
4.072829 -0.176898 1.099330
2.176400 -5.417500 -1.886800
4.169700 -1.007800 2.876500
-1.836145 0.710480 -2.801499
1.812780 -5.360987 -1.707329
3.500419 -3.646883 -1.411687
-1.797773 -3.506051 -0.199255
3.977400 -3.814900 -0.575700
-6.936300 6.379900 -5.097500
-3.467913 -5.594538 -2.389076
2.637497 2.507709 2.516525
-2.020200 7.713800 -2.278100
2.251900 2.396400 2.510400
-2.006075 -4.739596 4.635825
-2.049300 -3.756500 4.779800
-8.897400 3.788800 2.819400
5.445600 -3.204600 2.541200
-3.284189 2.374249 -1.901346
-3.317872 1.531565 -1.920130
0.800867 -6.488627 4.128081
-7.169827 -2.737746 3.937540
-5.443030 -0.892231 -2.325136
-1.705746 2.253128 0.213750
0.482515 -0.615149 0.375224
-1.599312 3.166823 -0.535032
0.657609 -6.110915 2.664563
-0.459400 0.957700 -2.206600
-3.351003 -0.839283 -3.332099
-4.340449 0.467355 0.253440
-7.398201 0.896948 -0.729593
-5.561899 3.385334 -0.970056
-7.511540 4.237346 3.894399
-8.355342 -1.623668 -1.357067
-0.382900 0.800400 -2.236500
-2.444733 1.780639 3.102110
-5.317611 -6.576949 3.908674
-6.381939 -5.699833 3.215374
0.890323 -1.449765 -2.630276
-1.422663 2.112345 3.312387
3.456000 1.441100 0.388000
-6.715720 -5.844318 3.058252
-3.800551 0.766192 -1.343632
-6.545891 -6.075282 3.271121
-0.150200 -1.023900 5.641100
-0.634268 -5.933368 -2.158142
-2.510048 -1.709349 2.632810
2.312377 -1.242527 4.812644
-3.837787 -4.049120 3.732198
-1.844818 -3.876035 -0.062813
-5.572680 4.720966 -0.488203
-3.920061 -5.278471 4.237793
0.522700 -2.176500 -3.424700
-7.783635 -0.964909 -0.771432
-2.145881 -0.558980 4.522398
2.741398 2.119942 1.500218
-3.065965 6.338611 -2.191108
-5.873491 5.050035 -0.397990
-6.112318 -6.857112 3.004671
-5.250503 -1.279516 -2.154805
-5.846896 -5.517001 1.857539
-2.671875 5.855795 -0.010813
-8.652781 2.692916 4.561561
-6.266911 -1.455304 3.925538
-7.094300 6.802100 -4.901000
-2.180000 -1.336400 5.539300
-5.744549 -3.396771 3.331709
-3.316879 -2.123529 -2.171225
4.409600 -2.641500 2.493100
-1.568720 6.636146 -1.431561
-4.341128 -1.148727 3.444927
-5.296500 -4.040800 2.655900
-1.566818 -5.600823 -0.698424
-6.325262 4.976546 1.657936
-5.695626 0.628040 -1.168609
4.848000 -3.488400 -0.124600
2.832254 -4.280027 4.504035
0.541963 -3.780082 -3.666704
-0.349700 -3.382600 5.655400
-2.283339 1.989286 0.312608
-1.624385 2.037481 -0.543793
-5.779882 -2.409796 4.317057
-8.999389 2.052378 1.721363
-1.177819 0.752243 -2.661125
-2.813749 2.367081 -0.557613
-1.413600 0.340300 -2.352200
5.926236 -4.373352 1.204769
-8.148850 -0.731281 -0.808101
5.730634 -2.345024 1.978011
-3.692925 2.178081 0.367117
-5.762884 5.560355 2.082375
-7.273774 1.682442 -0.779624
-7.050700 0.274500 3.894700
-7.311410 1.875765 -1.010457
-7.641641 7.545095 -5.021314
-7.049200 -0.555700 4.208000
0.445794 -2.034575 5.256372
-2.866400 -3.373100 -2.946900
-8.919856 2.062402 3.958524
-1.645253 -6.438655 4.670443
-1.379647 -0.420588 -2.190338
-6.736296 -3.967153 0.799693
-3.852717 -5.805928 -2.470704
3.676302 0.528872 0.530186
-1.915448 0.632654 3.552876
-7.800805 6.512426 -1.833838
-5.780300 -1.455300 -2.119800
-5.032155 -3.221782 -0.742304
-3.354339 -2.996880 3.631609
-7.352400 6.243000 -3.695600
-5.604747 -1.874899 -1.804570
-3.496424 -6.429925 1.996383
-5.095354 -1.586908 -2.077407
2.987700 -1.109400 4.333900
-6.631609 -3.263668 3.174627
-7.432000 5.825700 -2.791900
-9.234509 3.537245 2.479380
-5.308500 5.164100 -0.314300
0.808021 2.591041 3.263382
-4.900116 5.666774 -0.413220
-3.937043 -6.553730 4.722904
-2.611432 -7.060626 5.027745
-3.042821 -6.468976 -0.318486
0.245925 0.336352 1.474629
-4.043243 -6.163929 0.257275
-3.348369 -1.266381 -0.833469
-0.178805 -2.098645 -4.213309
-3.171149 5.109357 -0.781276
-2.655467 7.796846 -1.801275
4.234636 -2.959600 -0.889683
-1.010330 -2.859062 1.917841
4.491611 -3.873171 -0.337033
4.607571 -2.542885 2.584242
-2.749681 -2.342155 -1.488753
0.299894 2.961297 -0.085640
-3.610204 6.454686 -1.058033
-3.562835 6.365204 -0.470233
-6.716610 4.888076 -4.885153
-2.545429 -0.140731 -1.476554
-2.160152 0.894786 -1.015228
2.867398 -0.619838 -1.648665
-7.846794 -3.417105 1.564595
-4.125100 1.544494 -1.833820
-7.248900 6.808100 -2.285200
5.184676 -3.493254 -0.124033
-6.078798 5.746663 -2.935117
-5.038781 1.653045 2.766337
0.801675 -2.797837 5.521281
-5.276700 -1.876900 -2.126900
-5.671100 5.313200 2.931700
3.404444 -3.817295 4.319086
-5.264789 -1.830100 2.336261
-8.001162 7.615238 -4.591706
-6.655026 -3.184650 1.016869
-8.316817 3.022548 0.748926
-1.205146 1.586956 -1.268430
-5.152067 0.684040 -2.138798
-7.916100 7.080900 -4.198800
-2.992553 1.693290 -1.701001
-6.013048 4.996583 1.726526
-8.778622 3.744279 1.198671
-5.983400 2.408300 4.157000
-7.289471 4.739366 -1.712878
-0.830938 7.642378 -2.307456
2.042273 -6.892346 0.151171
4.453399 -1.055949 2.475753
-6.281100 5.825593 -6.004172
-4.049181 -2.786963 -2.511389
3.600000 -6.188500 0.239600
1.298109 -6.265749 -0.611018
-8.387578 -0.570518 -0.096997
-1.459945 -6.203181 3.320778
-4.858317 4.915714 0.273563
1.280625 -6.388378 -0.056332
-2.459312 -4.707099 4.356114
4.633400 -4.664900 -0.578800
-1.808825 1.546519 -1.383395
-5.422483 4.537532 0.251836
-7.319798 -0.377876 3.622948
2.932000 -3.672700 4.231300
1.125353 -6.728155 -1.168198
3.344125 -4.031631 3.777527
0.514231 0.344612 1.819384
-2.236127 -5.440332 -3.225711
-9.088550 3.636307 3.792547
-0.374759 -4.506536 5.309890
-6.855188 -2.910653 -0.113583
4.407126 -2.906533 0.608021
-1.308511 -0.182787 -3.050687
-5.288400 0.276200 -2.056400
-0.187955 -4.053661 -3.112541
4.614600 -1.796900 0.618700
-5.843020 7.438627 -5.615136
-1.394611 -4.985983 -3.270486
-9.309158 2.296003 2.790918
4.596510 -1.523997 0.369628
-7.227500 5.542000 -3.690600
-3.780014 -3.814057 2.550712
-6.271554 -6.362629 1.613505
-6.646280 4.611708 -4.183839
4.453856 -1.532281 0.651804
-0.003665 -6.535441 -2.428857
-2.102162 2.979094 1.196918
2.070735 -1.192121 -2.134303
-5.011364 1.133677 -2.535581
-5.445917 -1.313628 -0.482090
-4.905368 -2.790671 -0.033337
-3.762590 1.675031 2.586712
-1.049573 -6.552550 -0.983500
-1.495947 1.214758 3.846485
-5.354507 -4.937737 -0.570802
-0.631054 0.501807 1.237758
-0.716345 1.177881 2.512941
5.065103 -5.517028 2.509037
-1.148638 -3.248544 1.128924
-5.673992 4.426940 0.089544
-5.266800 -4.202200 2.355000
0.746080 -4.610318 5.395507
-1.307121 -0.842220 2.681894
-3.208700 5.926700 -1.292900
0.272121 -4.577433 5.662055
0.509893 -4.737126 5.688542
-6.710016 4.830858 -2.167444
-7.863900 6.387300 -2.795300
3.689000 0.997000 2.334400
3.726229 -4.541396 3.232860
1.440891 -6.702679 1.733703
2.009443 1.349680 -1.770415
-4.342736 -2.288282 -0.330852
-5.719417 -2.388579 -1.407897
-2.529400 7.999900 -1.799700
-4.787453 -5.595766 4.078519
3.091900 -0.574700 -1.776500
4.643300 -2.300700 1.412900
-4.401200 4.918300 0.634800
-1.169248 -0.603055 5.682952
-2.650052 -6.159574 -2.750003
-3.786227 -0.482052 -1.259648
3.397388 0.462762 -0.382246
-7.504204 6.776409 -3.818502
3.159673 -5.111780 -0.857666
-1.218168 -0.575328 -2.844881
0.868775 -3.600277 -3.307463
-0.094910 1.403574 -1.828557
-6.873314 3.080900 -0.356766
-4.932486 -0.335150 -1.117681
2.464351 2.534433 -0.977240
-5.864370 5.069710 -3.834985
-6.219813 -6.174252 1.614421
0.307329 2.363746 -1.536640
6.004900 -4.188000 1.617500
-6.675561 5.440981 2.744730
1.610926 2.452922 1.386467
-7.332491 -2.575827 -0.266852
-0.752981 -6.358774 -0.302545
-2.349202 1.062005 -1.667698
-3.144936 -6.682599 -2.923154
-2.329684 0.879621 -1.753688
3.419037 -1.719629 4.420796
-2.401000 0.983700 -2.031500
-1.165706 3.033269 2.969913
-1.606137 -6.384465 -2.272281
1.382316 -6.113602 -1.563499
-1.934267 -2.378419 0.786998
-1.997532 2.369090 2.591716
-7.804697 4.866974 1.049103
-1.793762 7.074935 -1.891664
-8.022864 3.258232 -0.843354
3.013833 1.407752 0.720639
4.451732 -4.751502 -0.779911
1.025635 -1.586118 5.734206
0.713442 -0.782270 5.688292
-7.525273 6.918940 -3.149023
-5.993900 4.739400 -0.221700
-8.951500 5.155900 1.811800
6.041947 -3.906122 1.706033
0.616600 -6.561600 1.997100
-5.055500 -5.091300 3.731000
4.551159 -5.443335 2.455025
5.335991 -4.920849 2.171132
4.620334 -4.804603 3.185677
-3.773847 3.076511 1.062050
-2.080800 -6.517800 4.626700
2.501568 2.098863 -1.501635
-6.414519 7.582548 -3.157701
-6.753222 8.486087 -5.518564
0.031258 -4.627552 4.908314
1.420300 -1.215000 -3.010300
-0.117380 -4.871809 4.970125
2.367574 0.487492 4.050546
-8.089800 2.168500 4.965700
-5.856509 -0.265138 -1.420005
-3.416269 0.939083 -1.831957
-8.085825 7.589937 -4.073796
-5.280704 -2.793161 4.024331
5.465800 -2.932200 2.258700
3.146773 1.502909 -0.212115
-1.367342 6.908471 -1.264732
-9.445108 2.562679 2.008520
-9.775487 1.540640 1.591859
-5.111506 -2.128746 -1.674666
-2.670772 -5.531594 -1.394995
-2.933635 -5.967248 3.309714
-7.104557 1.777865 -0.121973
-4.483160 5.587915 -0.099278
-7.705181 1.216074 -0.620420
-7.781875 -0.444904 4.193651
-2.130770 0.982406 -0.961940
-4.705868 -0.067860 -1.703205
-5.233391 0.721461 -1.696815
2.585397 -4.798073 3.784477
4.818547 -0.458471 2.826635
-0.945200 -6.532300 4.530200
-5.963901 -1.801179 4.641331
-6.719014 -1.963413 -2.262125
-9.686964 1.853656 3.345966
5.407758 -5.207572 -0.165588
-0.480757 -6.401060 4.483528
3.361906 0.516249 3.412823
-1.143349 -6.491066 4.755033
-2.392648 -0.608735 -2.133302
-6.128505 -6.901890 4.219464
-4.976541 -0.433708 3.679401
-3.110953 7.862339 -1.271860
-3.119767 -6.454414 0.878446
3.673378 -0.657674 -1.745070
-2.413154 -2.245487 2.720543
-3.422064 -6.252769 1.634995
2.523700 -0.739900 -2.202200
-3.932595 2.139311 -0.828719
-5.074358 0.321633 -2.445791
3.149556 0.706001 4.056618
-0.581469 -5.286215 4.527023
-5.422404 0.102543 4.500163
-6.087887 -4.283927 1.081146
-5.698460 -1.505490 0.049801
-1.626635 7.707124 -2.535012
-5.972200 1.832900 3.991000
-6.630354 -6.409192 2.253202
2.593884 1.801622 0.189713
-2.871367 -0.225709 -1.956293
-3.239600 -6.163900 -0.233500
-3.662400 2.311500 -0.817200
-1.832030 -1.930204 -3.965051
-0.741238 -2.175471 -1.196505
-3.629516 -6.292675 -0.312930
-3.016400 5.387100 -0.371400
1.817724 -6.963909 0.290333
-1.901682 -3.225604 4.868769
-9.075903 1.458254 1.454959
-3.586141 -1.351597 -2.706556
-8.850033 3.269083 2.622796
-9.376101 4.033170 1.716102
-3.521731 -0.819641 -2.803434
5.105095 -3.096322 2.586188
3.283521 -4.471587 -0.567955
3.724530 -3.021798 3.835417
3.442621 -4.619584 -0.432195
-5.918952 -7.356775 0.176682
-3.097566 7.557445 -1.655644
-3.880049 3.483444 1.658497
-2.362526 0.467567 -1.799323
-0.952946 1.129249 -2.081299
-2.490448 -5.040518 4.718705
-1.892585 -5.671480 -2.908228
-8.259300 -1.420000 3.126300
-5.779236 -2.778731 -1.639883
0.469987 -2.251326 5.613610
-1.087480 2.119600 3.026648
-8.420925 -0.898615 3.306092
-5.355000 -5.133300 -0.635200
3.265067 -6.053638 3.187025
-8.314034 -0.397652 0.038070
-8.588832 -1.062017 2.007293
-5.106602 3.092694 2.868698
-8.246115 -1.531253 2.085605
-2.311280 1.816608 0.731588
-3.405359 0.918169 2.186624
0.253500 -6.050800 3.453100
3.578122 1.185814 2.882376
0.341373 -6.285738 4.060257
-0.123889 -1.557239 -3.893740
-0.454160 -1.777038 0.923760
-0.414720 -1.918590 0.703172
-1.979225 2.541749 -0.729314
4.649738 -1.185950 0.896102
0.761700 -6.544400 2.192300
-6.356200 5.285500 3.422900
-1.243214 2.529937 2.854838
-3.012333 -3.970340 4.823681
-2.925061 2.923992 1.846011
-2.397357 -3.692299 4.226726
-1.099326 -0.692112 -0.942260
2.668600 -0.363200 -2.001900
2.978734 0.097635 3.896249
-0.580742 2.103724 0.058154
2.944474 0.618077 3.752323
1.262985 -0.992844 4.313126
-1.708962 -5.901129 -2.555030
2.254759 1.380650 -1.110722
-1.510655 -0.328512 5.462072
-3.213324 -5.901608 3.822518
-1.824045 1.401982 -1.780165
1.816909 0.831801 -1.699585
-4.934957 5.691411 -0.682747
-1.551383 7.260070 -1.516475
5.211922 -4.333304 1.372159
0.750100 -2.831000 5.607500
-2.259383 -0.118503 -1.079019
-5.552500 -5.979700 -0.981800
-5.385192 -5.287305 -0.827946
1.940295 -0.940188 3.970463
-6.366426 5.868565 -5.168867
6.284566 -3.676577 1.209715
1.523471 -2.732479 5.813023
6.471019 -3.126930 1.636831
-2.217598 1.512802 1.468162
-8.681388 -1.993167 0.960583
-3.510571 6.898349 0.011475
-1.689059 2.199736 1.933068
5.483347 -4.459623 2.445745
-1.629717 3.045183 1.216962
-3.649700 -3.943600 4.053900
-1.082387 -2.642741 2.937927
-3.449500 1.800700 3.125500
-4.014734 2.235532 3.438602
-6.444788 2.216150 5.276945
2.193100 -3.944900 4.743400
-5.667679 5.013711 3.404839
2.328480 2.229549 0.631977
-0.506273 -3.214800 -3.148515
-1.359406 -0.360494 -2.571668
-7.063621 5.309831 1.290412
-5.137093 2.737036 -1.070301
2.182598 -4.360835 4.751420
-6.456566 -4.289467 0.335677
-8.183487 4.893586 1.328611
0.361100 -0.707700 -3.244500
0.561200 -0.729100 -3.220500
2.668130 -2.153334 4.240475
0.083906 -5.548883 3.445404
-0.998652 2.172333 0.042466
-6.858706 -6.400836 1.573645
0.827935 -2.246340 1.576673
-4.114910 -6.246619 1.347224
-0.097363 -6.341519 3.075044
-2.362935 -6.464144 -3.223420
-6.258100 5.064700 -0.957700
5.121826 -2.182036 1.016245
-0.666420 -5.802349 -2.041669
-0.283686 -6.037559 -2.788940
-6.140095 0.228441 -0.149159
-3.982637 -4.627688 -1.508490
-4.646882 -5.599000 3.899240
1.215659 0.059339 4.706563
-1.204698 8.498582 -2.547648
-3.165204 1.411939 -1.885792
-2.355809 8.484273 -2.102773
-6.102060 4.372772 -0.290588
-0.150200 1.003100 4.278000
0.105034 1.196884 4.347617
-0.279819 0.941235 4.310461
1.648475 -5.844558 5.004279
-2.629654 6.095831 -0.594179
-8.610400 0.906100 1.934500
-5.816484 4.496297 0.027012
-7.850000 3.028300 5.303400
-4.622448 2.561075 -0.130445
0.189262 -6.686635 3.552345
-7.312059 7.505932 -3.983878
-2.133512 1.700952 2.657792
-7.264426 6.701950 -3.771099
1.311717 -1.060246 5.549436
-0.908378 -6.621108 -2.354255
2.594651 1.037812 -1.329831
-2.709003 -2.842210 -1.930728
-4.601016 -7.233697 0.109992
-5.594047 3.906788 3.303101
2.279269 0.066606 -0.919120
-3.552781 -4.606475 -1.101867
-8.216102 -2.051077 -0.333433
-5.481937 5.066082 0.977538
4.042041 -4.538039 3.302093
-1.658400 5.990800 -0.982500
4.052200 -4.171500 3.075100
-4.488900 0.846400 -1.892600
-5.872912 3.804519 2.867727
-5.478600 4.774400 2.738700
-5.393500 -4.723900 1.080400
-5.255755 2.197197 0.712013
-4.589700 0.847600 -1.872500
0.477620 -0.343711 -3.592139
6.050020 -3.385651 -0.109932
4.221431 -1.373555 -0.764971
0.788027 -6.935689 1.907254
5.831237 -4.021043 0.725128
-4.398350 -4.327519 -1.915956
5.031917 -3.425312 2.114836
-5.148733 -5.716128 1.069016
1.098525 -5.121678 5.357654
-3.488107 -1.996713 2.009080
1.550542 -4.165571 5.313725
-9.107213 1.455563 1.626369
