-4.493228 3.581138 0.829201
-6.876851 9.748675 4.413359
-6.305566 7.233213 -0.576643
-4.890409 3.242545 -2.398564
-3.685370 12.798804 0.191965
-2.907314 3.703403 -0.447395
2.707781 12.319860 3.064191
-1.567707 16.179902 -1.365561
4.765757 7.532225 3.206259
-1.546693 12.361773 3.077622
-1.376895 11.818977 2.812134
1.045304 4.131213 -2.018587
3.295063 6.653158 4.206460
-6.840081 8.751620 3.927207
-4.272450 7.462167 0.623802
-6.506282 16.455419 -5.336524
-7.152400 6.413053 1.468151
-6.471394 8.979238 0.734896
-4.840794 7.215480 -0.551821
3.255076 6.948283 4.452366
2.360380 6.819000 5.027952
-2.621663 10.962953 3.416170
4.266782 8.595504 2.001831
5.502664 6.489854 -0.239052
3.939343 10.293504 -0.714583
-2.516488 8.321101 5.508310
-2.693775 8.642917 4.922660
3.702832 9.209675 -0.108728
0.551975 10.552054 -0.056915
-3.109078 3.356007 -2.739182
4.678813 8.934251 -0.783885
-0.827067 4.876704 -2.731991
-7.367462 14.579705 -1.285586
-8.987327 11.344698 3.404263
-8.259056 10.777190 1.467453
-5.499709 5.249769 0.158799
-3.732442 12.402225 2.543284
2.988933 11.897292 2.356339
-6.435801 15.673096 -3.038474
-1.364519 8.149056 -3.767379
-8.740183 10.782177 1.166541
-5.604239 8.798932 4.908474
-8.994302 13.014625 4.722070
-0.696292 8.123740 -1.877302
-4.031603 15.608931 0.593481
-0.707445 12.043631 3.888305
-9.204748 12.400994 2.155080
-1.958098 4.118454 0.022427
-2.527875 3.835790 -0.088642
-1.371526 6.882756 -0.545796
5.679877 6.796439 0.107074
3.260645 5.270832 -0.977391
-5.726406 8.057631 4.509717
-3.169091 5.631491 3.656042
-1.401860 4.001413 0.744182
2.748178 8.982252 4.895105
-8.901958 9.024660 2.155605
-6.661492 15.282726 0.466495
0.334386 10.719866 -2.141875
-4.769488 7.236648 -1.597240
1.749290 10.577344 4.293879
2.064425 4.296855 -1.970969
1.863274 10.092978 3.938948
1.430399 10.562633 4.452112
4.972446 4.167544 2.109125
-7.878635 10.875349 3.672510
-5.977620 13.481026 -0.981045
-6.037743 12.044068 -1.245926
-5.082095 3.099544 4.011389
-6.962293 17.056993 -5.679685
-1.617093 16.558963 -1.884156
-4.313415 15.079558 0.145742
1.842720 12.782820 -0.349562
-3.782445 15.858294 0.762301
-0.712078 8.763876 0.357852
-7.389132 16.593156 -4.362393
4.093781 9.745424 -0.361898
-5.218085 6.657359 -1.847137
-0.935467 11.285675 -1.910354
-5.367913 8.644562 5.165549
-9.740701 11.457765 1.598113
1.523301 5.542301 4.886177
-1.513988 3.825491 1.215191
0.111899 3.447906 1.341699
-6.015356 15.069629 2.982210
3.356234 9.279319 -1.989763
-3.949303 5.628946 3.994875
-4.140293 9.890292 2.312427
-3.650728 5.456964 3.645745
-5.907507 6.458784 2.729082
-8.017444 12.397734 5.023509
0.096894 13.458451 0.427961
-0.442144 3.384081 -2.242762
4.066981 10.273526 -0.079662
1.776499 3.542847 -2.033346
-0.609601 8.799272 0.044982
0.940966 3.605503 -2.278464
3.598310 6.050072 3.590415
-7.091703 15.469967 3.797206
-1.675460 3.366239 -2.467578
-6.169982 5.955098 1.776156
-3.300723 3.765617 -0.507049
-2.005997 3.081875 -2.011636
-4.548720 8.661761 4.750109
-4.646890 9.034001 4.368874
-7.432117 15.787901 -1.804770
3.603420 8.080921 3.804764
0.349320 11.174410 -1.362810
-3.048035 10.136908 4.095201
-7.070443 15.355761 1.357350
-3.055042 4.210473 -3.406809
2.611333 3.542735 -0.468162
1.090763 6.512572 -3.430272
-2.202671 3.549246 0.639302
-2.665041 4.033314 0.779031
-1.198282 8.125313 0.369502
2.376338 9.597858 3.894981
-8.676859 12.402687 0.347320
4.013972 11.186664 1.467364
-8.126274 11.568339 -0.585807
-3.250830 10.568008 4.000914
3.057214 6.860444 4.335868
-2.970602 10.931352 4.207251
-8.392083 7.984868 3.525564
-6.355486 8.832964 0.511811
-7.615088 8.283794 4.435625
1.972293 3.572221 2.205940
-1.461900 5.880400 -3.740395
-1.698070 12.542928 0.629485
-7.836193 8.504674 3.530618
-5.349089 8.901245 4.499626
-4.445458 9.589060 3.943499
-3.838459 11.476656 3.580918
-2.687973 11.609730 2.775554
-9.405983 13.292160 1.570712
-0.458240 11.170279 -1.701996
-6.241929 13.180587 4.337660
-1.481559 9.503401 -3.844871
-6.707586 15.632810 1.975724
-8.877357 14.980427 1.250727
-4.846396 5.248409 2.149688
4.651054 5.837436 3.181992
-0.710741 3.967284 -0.268424
-6.076056 16.249616 -3.041588
-8.403636 13.202850 5.748250
3.915070 5.847751 3.375775
-8.188705 13.404525 5.025220
-3.949688 12.822128 1.271162
-5.955716 6.170180 -0.535190
-8.059723 8.276543 2.683085
-6.578553 12.847119 5.095611
-5.583985 5.891843 -0.440427
3.941286 7.938985 3.416548
-2.584004 4.322312 5.341488
4.728931 9.729333 1.242534
-5.057892 5.289697 1.451064
3.408415 10.340113 3.366379
4.351359 9.871976 1.414936
-0.917506 4.265733 0.446793
-7.705340 14.607482 -1.920230
1.150186 3.944372 -2.241252
-8.418078 15.195621 0.953313
-5.838818 4.858549 2.367122
1.192057 8.605224 5.423002
-3.448765 7.892927 4.183843
-5.749167 6.007385 1.835136
0.459943 12.615017 0.400445
1.230923 12.978486 0.130977
-5.014392 15.128277 0.288119
-4.806876 15.167098 -0.489982
-1.118242 6.210419 -3.010158
-4.681876 6.718656 3.973295
-0.096896 13.059118 3.217628
0.890214 9.885607 -2.267933
-5.975105 3.569485 4.826007
-0.966539 11.415201 -0.542039
-1.027030 3.851635 0.564357
-2.482368 8.399728 -3.753543
-4.692526 13.156337 0.771664
-6.994964 10.267169 3.920969
-4.955356 14.168456 0.639771
0.125598 10.884662 -1.353689
-7.773522 8.688778 3.987154
-8.909958 9.668731 0.653959
-1.010224 11.371540 1.157266
-5.300611 10.561913 -1.162083
-0.286971 3.712365 -1.072921
-5.606422 15.117005 -0.975246
-3.179198 7.533769 0.686631
0.225271 13.119525 1.909871
-2.206694 12.859603 1.456188
-0.786704 10.845810 -1.911663
-1.365315 4.967894 -3.120869
-5.691095 3.360534 1.499690
-3.239612 8.954785 -2.179609
4.690046 8.635246 1.624547
-5.141838 5.489129 2.095261
-5.338758 10.470722 -1.006417
1.234836 12.263630 3.594147
-3.750254 6.030489 4.313059
-2.256125 16.736848 -2.103341
-8.972384 14.410862 1.587997
4.290700 10.869414 0.021156
-7.159429 14.504785 -1.087670
-7.088398 6.766717 1.960505
-4.656884 9.444132 3.933159
-0.623156 9.983394 3.330937
-4.492328 9.643949 4.392027
-8.905795 12.207461 0.425806
3.008663 10.491978 -1.312029
-3.010526 16.300825 0.251363
-3.948432 10.790871 -2.138151
-4.457950 3.556673 2.669403
-5.380440 8.841555 -2.211669
3.050210 11.057604 3.600969
0.654635 10.568150 0.499751
-5.739814 8.971814 4.772678
-0.665885 13.096012 3.323730
0.923878 4.369446 -2.909585
4.899226 7.188862 -0.088931
0.368857 4.618676 -2.145481
1.935761 4.760129 4.178320
-3.503055 3.752455 4.773627
-5.075976 7.974346 -2.026952
-6.368150 16.939908 -4.559455
1.433347 5.552149 4.865302
2.356598 5.054375 4.511982
2.155533 4.875056 3.510134
1.193516 5.195299 4.791461
-3.027574 3.542560 -0.210768
-6.297466 15.047150 -1.215386
-5.060057 12.942816 3.790374
-6.263863 4.168945 3.226133
-6.506732 4.220424 2.713346
5.808197 4.934911 2.058317
1.340263 13.096603 1.123002
-5.746836 6.787013 -1.824457
5.512333 6.268334 1.912910
-5.805008 4.235257 -1.089792
-3.240329 3.195789 2.886845
-5.030645 9.502576 2.612203
-2.464305 3.812198 2.477855
-7.176083 9.476177 -0.828828
-4.848782 8.798137 4.341464
-4.441749 7.265481 1.419702
-8.575559 11.029596 3.676191
-3.956087 6.197016 -1.951725
-2.382205 7.883827 -3.438682
-2.187995 3.834758 -0.388465
-3.003970 4.751598 3.342430
-3.240465 11.599823 -1.283264
-6.269663 6.641738 -1.637703
4.423922 8.511643 1.734501
-0.278770 3.884358 3.487776
-8.421401 7.965965 2.974511
-4.547663 9.594793 4.317243
-4.764263 12.833566 -0.755785
-7.090158 14.627563 -2.079625
4.566695 8.480373 1.616282
4.235714 8.075855 -0.357801
-6.095472 4.236543 2.857976
-8.379374 12.789592 -0.518776
-7.353501 15.399581 -3.986630
-4.411715 8.740195 1.974126
-2.479499 6.924257 -2.823334
-6.161578 3.820652 5.018432
2.694667 11.774534 2.962664
-0.682126 3.580604 1.438801
-0.422686 3.838832 1.243417
3.678758 10.742070 0.585983
-5.975881 7.671504 -1.852178
-8.344716 10.774801 4.221102
-0.343913 11.247310 -0.881912
-2.899872 7.340782 3.899687
-3.158264 11.383395 -1.075795
-3.245929 12.480410 -1.050952
-4.777057 14.401688 0.580317
-4.972538 14.434510 -0.675551
2.229139 5.642032 4.614262
2.390356 5.448702 4.313240
-4.307245 11.738116 1.330321
-2.549961 3.939069 5.184876
-8.007755 10.319868 -0.659958
-8.241735 10.588540 2.745800
-6.973573 6.239203 -0.389434
-2.233973 10.696270 4.228519
-0.832763 4.446293 3.373987
-4.511670 7.354706 3.630482
5.604877 5.556695 1.806448
-4.582081 15.644172 0.358447
-1.225167 3.245367 1.438618
-3.570010 3.462573 -1.807256
2.880865 12.168733 1.836426
-7.823611 15.124139 3.518821
-2.295065 8.862812 5.059790
-1.519577 12.812818 -0.577015
-2.307336 9.322497 4.942905
-4.913790 6.424666 0.057555
-2.086086 16.338399 -1.611115
-2.172992 7.891031 -0.468890
-2.266971 15.275364 -1.043256
2.052185 11.120605 3.769735
-7.473399 8.554955 4.215400
-4.275553 13.447473 1.100751
0.798418 11.440166 -2.348729
-4.108258 9.805473 4.763646
-4.988957 9.399245 4.010404
-5.567663 7.737608 3.920735
-2.628649 16.985734 -1.281193
-5.602941 15.322272 -1.511732
-8.370386 8.429462 0.371570
-2.586379 17.650709 -0.915377
-3.539157 3.346614 -3.385814
0.180118 13.552250 0.331464
4.107227 10.142124 2.215841
-7.225819 7.639062 4.497035
-2.586996 8.758989 5.505739
-0.678777 12.637002 2.978157
1.453121 3.119021 2.972348
5.173719 6.938779 0.244109
5.175907 6.842175 0.142813
-4.928722 6.803935 4.112910
-2.218305 9.577072 -3.245078
5.824590 5.803431 2.255715
-9.051252 12.263515 -0.239666
-0.383559 9.206618 -0.384048
-4.754564 4.798019 -1.344544
-0.800850 5.788676 5.070155
-6.920893 15.543256 0.446943
-2.334327 3.804877 2.150747
-5.135467 5.109558 -0.526918
4.496328 8.140090 3.942753
-8.275022 9.568431 2.552546
-1.778735 6.519025 5.533430
-6.286565 3.616050 1.172756
-7.628235 7.339786 1.399683
-2.590225 5.532196 -2.715042
1.371938 10.409911 4.116900
0.774082 12.728527 -0.399851
3.689384 9.102663 -1.294818
-3.101545 9.544756 4.336764
-9.338991 8.561676 1.329396
-4.654762 2.908369 3.926305
-2.089057 9.714914 4.672512
2.928000 6.011360 -2.269812
2.920505 5.522416 -1.780379
2.909897 3.377853 0.300030
2.669875 12.394608 2.672342
-7.923123 14.489393 -1.312932
5.470236 6.007363 1.619957
-7.448252 15.256129 -0.787408
2.295269 3.503174 -1.361551
-4.651245 5.112140 2.223257
-5.066411 5.745924 1.122371
-5.748151 2.993787 -0.668833
-8.521028 7.937721 0.866719
3.296875 6.396718 4.676073
-5.616805 6.333533 3.532504
-8.702030 8.668354 1.700493
-2.081968 9.993855 4.072412
-7.816427 7.634464 1.117270
2.222391 3.147745 3.152093
1.149462 4.453284 4.447486
-2.115699 15.925297 -0.465460
-6.693755 15.004778 1.333047
-5.688281 11.118394 -1.708447
-1.238597 3.834870 1.081572
4.872551 8.768499 0.641966
3.752567 7.850692 -1.280436
-1.338198 3.838474 1.057679
3.898618 10.859345 1.036321
-7.927900 10.969471 4.121509
-3.707590 15.434701 -1.373536
-4.740675 16.725501 -0.444641
-7.643332 14.956403 0.791190
2.431110 6.885561 5.224048
-3.896223 11.737299 1.671008
-1.915487 6.442616 1.077478
-7.459072 8.061174 -0.792046
-3.615226 12.564569 1.521615
-2.179432 8.664215 5.539025
-2.421439 8.208013 5.670598
5.952078 6.965074 1.111256
-2.844092 8.739007 -1.361785
-7.926672 10.777331 3.200117
4.210603 8.692182 2.845600
-5.488505 10.837677 -1.837948
-2.589650 8.103689 5.346326
-1.590300 11.972661 1.084761
-5.489495 10.981479 -1.803055
-5.198418 4.086525 1.897734
-4.165260 13.148104 2.151404
-4.990904 10.363559 -1.682065
-8.654440 15.293495 1.447369
-1.696798 3.385579 1.750865
-7.886273 14.759768 4.420648
-0.115619 11.911199 -1.427254
0.107279 5.980666 -3.757806
-4.804055 13.158849 1.494218
4.990189 4.606189 0.227722
-5.746550 15.636515 1.011960
-1.059380 3.504629 4.546976
2.698571 4.268304 -0.655714
-7.126060 9.441693 3.967484
-0.919843 9.523425 -1.001474
-3.651044 12.467588 0.907932
-4.195114 9.751623 3.839039
-6.857917 18.185825 -6.410840
-5.036536 10.521051 -2.361325
-4.283191 9.225091 -1.716744
-7.795372 15.015338 1.728413
2.123062 10.963292 -0.813596
-2.041210 4.020642 -2.639144
5.729433 6.306617 1.727288
2.431805 11.181953 -0.537516
1.816363 10.896897 -1.078118
-5.758604 14.279367 0.336391
-5.101674 14.468495 0.359612
4.211565 4.536936 2.923664
-0.612539 3.857126 0.038294
-5.379110 14.695644 0.797865
-3.558159 2.731255 -2.557607
-5.926606 4.184390 3.317447
4.565460 9.041529 0.616558
-2.768051 4.753546 -3.226148
-5.150652 13.416531 -0.180383
4.114454 7.122836 0.076755
1.051061 8.025352 -3.130525
4.140678 8.831570 0.292139
-5.269385 6.859469 2.312932
-0.148677 11.280946 4.211175
-7.519996 15.610249 1.836180
-0.844693 4.000429 0.200859
2.601816 5.639197 4.273937
-6.547842 9.562126 4.544990
1.916930 5.377617 4.435070
-2.705051 8.760162 4.511793
-8.710932 8.973841 -0.659214
-4.917679 6.009232 3.400339
-3.743280 8.548514 3.779254
-7.585644 7.433720 0.514178
-5.877286 10.494994 -1.753679
-5.519815 2.894680 0.483895
0.509805 8.285857 -0.375293
-1.021674 4.152748 -1.782931
0.197728 8.292097 1.890628
0.868369 5.505948 -3.206788
-3.420941 11.254300 1.473567
-2.977895 9.650562 4.868428
2.025927 3.281184 0.736402
-1.062336 7.721902 2.375403
1.843103 5.532773 4.542161
-6.689772 12.016505 -0.922845
-3.169004 4.620823 4.711177
5.537084 6.518752 0.078203
-2.095715 11.553656 0.462799
-6.746011 15.493936 0.218833
-6.469568 15.062069 -3.275867
-4.097449 3.234546 -2.765808
-6.418853 15.386251 1.666032
-3.349307 5.755305 3.825330
4.518080 9.257581 1.405517
-7.189068 14.846175 0.508397
-4.120424 11.034921 0.169877
3.983338 7.348606 -0.166121
-3.150841 12.333619 2.285560
-1.399564 4.223624 1.113666
0.923516 11.639569 3.807688
-0.022175 12.278017 0.383566
-6.999266 4.556258 0.225558
-1.438287 5.544346 5.206345
-7.455862 7.473224 -1.164796
-2.993656 15.244271 0.129307
3.542225 6.705634 2.933454
4.236924 9.060632 0.711281
1.764406 3.824971 0.705838
-6.750276 6.082921 2.434120
3.215281 10.578979 -1.424681
1.725485 3.593068 -1.365243
-2.895934 12.651367 -0.150922
-5.041247 3.701516 3.784942
-4.630821 3.086282 3.381532
-7.180868 16.551030 -2.072869
-1.867784 4.277262 2.188566
-3.650331 3.492498 -1.212068
-7.748920 9.275244 3.723070
-4.543430 3.825894 -2.304378
-5.082126 13.899080 0.160385
-4.762641 14.789650 0.682057
-3.508534 6.583888 0.941276
-4.066366 3.351568 -2.548118
-8.916158 9.194357 2.679636
-6.550445 16.040812 -5.283741
-2.713580 12.359391 2.937992
-7.521550 5.967543 1.157036
0.637103 4.948396 -2.837202
-6.762936 15.005527 -2.419851
-8.326557 7.949233 1.299073
2.293229 12.689200 2.318120
3.689853 5.786263 -1.593716
2.504969 5.366696 4.262888
-0.458649 12.950143 3.011541
-2.526023 10.632195 4.076388
4.401379 8.626841 1.321104
-6.185520 16.158045 -3.459433
-3.325765 6.746711 0.347686
2.420951 11.919099 3.817409
-4.585398 3.337648 0.380635
-4.855035 4.874985 1.713771
-4.421367 14.239364 1.438455
-1.713770 12.461706 1.485532
4.729036 7.313767 1.687122
-8.261867 8.207765 1.639683
-8.240276 15.109698 2.783776
4.304807 6.358714 3.282159
3.785156 3.924559 -0.666087
-3.606773 8.633763 4.336201
3.565860 6.191876 3.495402
-0.551718 4.434091 4.754100
-3.117204 9.110015 3.732719
-3.963703 9.186170 -1.564398
-6.843342 6.678112 -0.454077
-7.179961 6.681340 -0.717315
5.289911 5.607450 -0.273141
-8.208873 11.567363 2.126475
1.374922 8.430473 4.999510
-3.186251 10.433635 -2.192685
-4.862103 10.393897 -1.724669
-6.449109 13.841013 -0.882110
-6.530091 18.683307 -5.700797
-5.885650 9.185183 -1.914250
-8.809344 13.916785 1.019740
1.138109 9.592032 -3.323279
-7.015435 17.557073 -5.516198
-5.609991 9.862247 -1.546266
-3.892886 4.474238 -3.195565
5.861344 5.123424 1.110459
-3.342791 16.678619 -0.462146
-5.304627 4.793083 3.151935
-0.549326 8.564733 5.708720
-4.465402 3.500687 4.275002
-4.837754 3.456875 3.535829
-0.414423 9.046340 4.973032
4.536687 8.005338 0.881263
-3.037211 12.486440 0.387910
-4.849472 5.665037 1.267380
-2.901983 11.476669 4.058933
-3.289252 16.781418 -0.160262
-2.222796 3.271596 5.487301
-8.940965 10.983081 0.364741
-3.116133 17.408999 -0.099138
3.884221 5.771079 3.266011
-5.742685 15.760629 -4.319939
-2.875470 18.791960 -1.195900
-4.071881 3.362088 0.208882
-0.436408 3.362301 -2.115901
-0.205389 3.815522 -1.933950
-0.543818 11.903423 -1.416025
-3.154146 6.670759 -1.471216
3.185538 11.212904 3.713414
-5.892637 15.161738 -1.380478
-1.948924 3.980621 2.215535
-7.604933 14.228499 -1.053012
-5.868774 14.486657 3.821921
-0.780151 3.904992 5.374437
-0.929508 3.811066 0.759887
-6.351756 13.960670 3.802773
-6.187619 15.379364 -5.167551
-3.618208 5.012951 -1.837025
-5.344250 11.976586 3.871600
-3.618779 17.454025 -1.289908
-3.157294 9.657499 -2.860071
-5.768699 9.856867 -2.315854
-5.996416 10.095070 -1.630923
-6.520777 14.955812 0.079068
-8.275504 8.021762 0.286335
-3.302038 3.813678 3.095680
-5.068952 9.916452 -1.626976
3.623891 8.327123 -2.237584
-0.737413 18.032504 -2.303112
-9.183957 14.622167 0.942309
-8.202919 7.696610 3.234301
5.924633 4.609228 1.355002
-3.801549 3.601078 -3.209224
-1.499217 8.177917 5.220408
1.583851 7.341698 5.601607
-8.197873 13.241292 -0.340172
-0.328597 3.850854 1.076485
0.527906 5.099398 -2.921501
-1.105271 6.664516 -3.331077
0.799937 3.766901 -2.439789
0.634906 5.101292 -2.922408
-4.253606 6.509199 0.518832
-3.170747 11.198899 3.485148
-6.917193 15.645842 1.066503
-3.404874 10.006748 3.598784
-7.728499 15.836120 -1.390516
4.222368 8.003610 -0.827321
-2.841975 3.614062 4.748383
3.809163 5.555349 2.493194
3.772203 6.321599 3.509329
-6.516447 3.992245 3.038926
4.212704 5.824362 3.871248
-8.410901 11.027238 -0.010200
-5.042221 5.062345 0.148716
3.990586 9.442266 -1.259367
-3.617241 7.639933 4.287874
-5.496772 14.033190 3.388611
-2.297207 6.499850 2.426929
-6.087938 10.259210 -1.853983
0.434294 11.061182 0.597926
4.259569 6.646038 2.731882
-3.406839 9.097124 -2.645356
2.520844 8.741912 -2.362092
-3.466653 12.293195 0.541613
-1.791619 8.543975 -1.211826
-5.876000 4.729549 1.415854
-1.090388 6.483005 5.842664
-8.798132 8.306004 1.856734
-2.389541 8.027528 2.602402
1.006617 2.902249 1.832935
-5.682397 6.306191 3.225788
4.875362 7.847322 2.701816
-0.422601 3.574662 -1.312392
-5.960129 11.948771 -0.539532
-4.075627 14.891271 -0.100524
0.093468 8.765730 5.487712
2.080616 12.648982 -0.045531
-1.745244 3.880379 1.626080
-3.102056 15.373210 -0.355105
4.917859 7.699587 3.031051
2.441078 11.269074 3.545403
-3.848384 4.927372 -2.472501
-1.825250 8.341837 -2.470452
-5.940540 9.505220 -2.130825
2.822574 12.593870 2.526041
-6.197451 9.026130 -1.129767
-2.412010 8.803783 -2.510808
-4.419500 2.760115 -2.505180
-4.127911 8.997774 3.142273
-5.824079 11.722435 -1.745823
4.450148 5.699248 3.209211
4.195756 7.147015 2.953609
0.845496 5.347393 -3.475245
4.198745 8.502268 -0.175701
-5.181805 3.486953 -0.542786
-3.508976 13.075536 0.867053
-5.740866 8.607739 2.102153
-4.014421 11.359911 3.782193
-3.223240 12.630161 0.653422
-2.967097 16.178637 -1.708369
-1.726636 18.473500 -1.972277
-3.290869 16.753971 -2.294763
3.025605 11.096715 2.997904
-3.804646 4.339644 4.661053
-6.113596 3.094483 1.111379
-5.122575 11.798887 3.478970
-7.094611 13.141248 4.459129
-6.569138 15.722110 1.734311
-8.262651 11.384347 -0.589699
-7.444796 15.968582 -2.108276
0.775016 3.176140 -0.365723
3.405323 7.338605 4.432964
1.668280 5.864774 -3.081512
3.021219 7.543657 3.988296
-2.192814 3.635152 -1.928443
3.276434 8.442917 -1.354816
-1.148304 3.536841 -1.770521
-4.198290 12.053206 2.311170
-1.941618 12.460345 -0.382756
-1.741262 12.434144 0.193073
-7.473662 15.296463 -0.619120
-1.931394 9.548723 2.831357
-3.252682 5.400646 3.361148
-6.202363 12.774552 4.968717
0.003508 6.155967 5.273831
-0.051768 6.188812 5.399144
-7.380430 6.581592 -0.634713
-4.882008 11.431208 3.540056
-2.039261 7.307237 -3.202228
-7.487346 10.779428 -0.905812
-9.448429 13.126869 0.478375
-7.600166 10.939378 -0.428506
1.668829 4.012883 -1.991799
-5.678684 5.644072 0.193683
-2.716952 17.267823 -1.859013
-0.727121 4.226707 4.888421
2.019594 5.281455 4.061635
2.795418 4.637730 3.478560
-2.596404 5.036286 4.499768
-3.030320 17.389710 -1.835262
-7.474260 12.401884 -1.150626
2.570587 9.522024 3.989285
5.639069 6.574658 -0.119197
4.954665 5.997255 0.257809
-8.381542 9.728044 0.277430
-6.168639 11.283190 -1.221371
2.055863 12.525803 1.326981
-0.861332 12.995862 0.153510
-6.880668 16.998794 -3.740137
-4.844453 12.237768 2.900447
-5.012038 11.832433 -1.191000
3.799105 9.205751 3.268413
-8.946414 13.836811 4.103610
-3.204519 12.646473 0.953320
3.787765 9.492594 3.848178
2.207886 11.399087 3.560013
-3.565209 15.297467 -0.294181
-2.752457 6.601575 3.881653
-5.930194 3.602101 -0.270590
-8.297246 14.735226 0.316870
1.151746 4.050122 -2.443762
0.555443 13.018430 0.651169
0.296144 7.599201 5.460451
-3.475112 8.481504 -2.662869
-3.251809 9.523378 -2.787089
-3.386769 10.148345 -2.222759
-9.342068 12.582389 1.565068
-0.511114 3.332628 -1.468015
-0.232211 9.744589 -2.593650
5.994756 6.139562 2.857015
3.739253 8.191938 0.040021
-3.723306 12.847491 0.891568
-6.334415 16.336784 -3.056755
-9.025029 10.104766 0.944629
-0.466526 3.599161 3.050162
-7.266640 7.774398 -1.328596
-7.258342 7.631501 -1.231991
-8.259435 9.190598 2.550859
-3.660234 12.439044 0.595134
-6.832240 16.258015 -5.149888
-5.487921 5.670674 3.761213
-0.351323 4.428778 4.691787
-4.332338 10.935072 3.396137
-6.076503 16.226509 -4.325568
-4.666450 9.401354 4.116174
2.013651 3.821586 -1.722869
-5.320695 7.615334 2.289390
-5.660294 14.193288 3.816754
4.281801 5.510744 2.616130
-7.132500 11.549693 4.589871
-4.766692 3.987335 4.173789
-2.455725 17.650969 -2.158429
-0.669756 7.105227 -3.770126
-2.806226 3.854667 3.625576
-4.064073 12.780945 1.525072
2.106705 13.279019 1.591024
-5.859339 15.158727 0.809530
-2.653067 4.335645 3.234705
-2.698661 5.077857 -3.354014
-7.801032 14.849521 -2.381665
-6.173983 14.796157 0.416280
-6.335236 10.475226 0.329978
-7.553320 15.496375 0.080087
1.106603 8.919321 -2.760485
4.731473 5.186572 -0.496186
-6.783589 4.015698 0.017110
-4.649135 5.327674 3.761235
-5.649894 8.420988 -1.681221
-6.953305 3.667520 -0.405139
-1.278749 17.961157 -2.062010
-3.269672 10.834488 3.504154
6.091047 6.313490 0.405985
-6.835460 15.578671 0.913335
-7.345965 15.189250 0.829458
-8.335217 15.465058 -0.814602
-6.095331 14.823426 0.553009
-9.060671 11.786637 3.041978
-0.932480 3.556396 -1.747082
-3.522677 7.255261 0.683418
2.058841 3.715767 -1.460060
-4.337303 7.253366 1.324310
-9.068738 11.898262 1.273429
-5.498702 8.741285 4.825590
1.863996 3.973801 -0.880236
-7.470829 16.357058 -3.779149
0.335330 5.634627 -3.234899
2.618954 5.772679 3.619177
-9.222404 11.852271 1.355395
-2.578765 12.505475 1.648358
-4.732467 4.251287 -0.564841
-2.189139 13.436372 1.662105
3.173524 4.966607 3.694362
-4.638185 3.635199 -0.314151
3.420096 9.089290 3.099777
-3.549334 17.123450 0.016849
-3.459213 12.850229 1.301498
1.377933 5.982772 5.115485
-0.443497 8.347717 -3.311019
0.654138 12.832893 3.103349
-7.702024 16.879997 -3.245451
-5.917115 11.337319 4.004920
-5.556902 7.526365 4.240336
-6.613820 11.571029 4.826795
-1.885583 16.171414 -0.896934
-1.297121 11.697049 3.261715
4.013092 4.299038 0.683162
-3.284581 12.656701 1.513625
-0.902724 8.263973 2.719148
-2.016795 15.842505 -1.862329
-3.619466 3.049145 -2.211567
-8.615563 8.112181 0.655526
-1.455769 15.981224 -0.811578
-1.401736 11.265758 4.222429
5.038791 4.628343 0.148670
0.297763 3.896292 -1.065333
-1.863096 7.401092 0.437829
-5.400043 13.652542 -0.235177
-3.104782 7.237468 -3.621038
-0.101638 3.744206 -0.831042
0.421939 10.734343 2.913360
-5.015001 11.976673 3.267070
-2.113251 7.667079 -3.572087
-3.567744 12.389221 -0.700744
4.904272 5.285051 0.385080
-1.343278 9.291182 -3.654731
-6.651663 14.663759 3.749630
-3.225346 4.813474 -1.912064
-3.998495 3.626507 5.136907
-8.395017 10.832785 0.308201
-5.020958 12.864529 -0.923160
-0.921856 13.287526 2.147530
-7.142695 11.553366 4.963891
-7.433911 7.771821 3.595915
-1.069823 12.922507 2.162766
2.657845 11.940678 1.989181
-0.547590 12.405855 -0.678604
-2.157141 15.816551 -0.503788
-7.245421 15.166289 -2.024914
-3.257553 12.693854 1.207314
4.887865 8.675894 1.011676
2.259974 5.229653 4.039175
0.904524 7.869833 5.917543
-2.502052 7.814063 4.868143
-5.223206 3.760889 -0.541133
0.795501 4.731710 4.528850
-2.685456 7.888016 2.352712
-5.259021 16.239948 0.443951
4.527520 9.039970 1.515361
1.229291 3.970593 -2.321114
4.184891 9.050144 1.495622
-2.014283 16.826280 -1.960841
0.951567 7.961911 5.424372
-3.201023 3.354862 4.708705
-6.120203 14.814251 -2.407365
3.556192 4.958419 4.057439
-8.906516 9.699730 1.940529
-0.129788 2.945901 -2.188432
-6.602225 14.641419 -2.288539
0.176639 9.549209 -3.112671
-2.390571 6.993674 5.298232
0.008179 7.391032 0.882833
-1.930926 6.531865 5.391447
-4.921484 14.697573 1.162689
5.271717 6.444547 2.883445
-3.345223 6.274025 0.124943
-4.797070 13.555860 0.940287
-4.781363 13.556963 1.039786
-4.910341 7.416664 -1.801276
-1.473064 4.759390 5.670086
-6.247105 16.309687 -4.859136
-2.329199 16.021617 -0.898549
-3.183370 16.423629 -1.798355
-6.336430 14.392971 3.829354
-1.916167 3.838661 0.032517
-4.748503 15.111899 -0.667718
2.591352 4.314873 3.652606
-6.582053 15.048632 -1.200422
-6.812002 15.221385 3.566049
2.973329 5.755225 -1.528289
-2.405971 17.351142 -1.916820
-3.281371 12.044141 2.314128
-0.301201 9.941061 -2.529056
4.270934 4.303668 1.043275
-3.326770 12.716487 2.578475
6.154782 7.025481 0.888323
-4.520722 7.067476 3.711537
5.530968 6.673726 0.263899
-0.226794 3.700520 1.226710
-7.858943 15.642631 -0.417922
-8.541943 12.503475 5.132429
-3.145159 15.199030 -0.103125
1.187540 9.142998 4.904681
1.032140 9.276314 4.749232
-3.565952 10.061885 3.174784
-1.199814 12.446190 0.182863
-7.501729 16.656794 -4.003467
0.022388 4.975400 -2.726876
-5.796937 3.397876 2.331196
-2.435505 11.949537 -1.957378
3.229905 6.621625 3.948455
3.305063 10.184601 -1.956474
-3.019592 12.644879 1.521484
-3.853876 11.837447 2.983425
-6.288222 4.646933 -0.253137
-9.000931 12.476029 4.944540
-1.242674 3.838989 0.588608
2.387963 9.558786 4.624897
-0.910883 3.915776 0.750838
4.718300 5.640674 3.067724
-0.996843 3.562526 0.659762
-3.818506 13.265384 0.375792
1.444290 6.706714 -3.145107
-5.328220 4.839114 2.644562
0.447153 5.077991 4.656053
-2.973004 4.864913 -1.816943
-5.660645 12.479202 3.136436
-4.780275 6.539646 -0.934374
-8.507129 9.726223 -0.303961
-2.808521 5.114790 4.157221
-9.585014 12.810095 2.141637
-6.481165 3.352332 0.450643
-3.136684 16.677869 -1.933104
2.247509 7.741746 -2.852704
-3.842600 10.750660 2.747646
-4.740507 13.723102 2.667122
-5.093771 13.835836 2.172131
3.928656 9.320442 2.583330
-5.089339 10.970427 -2.342773
-2.778195 5.913470 4.083961
-6.993425 12.969001 -0.901741
-9.420575 12.013167 2.129363
3.068014 12.236958 2.783908
3.904760 4.159549 1.351934
0.089217 5.821167 -3.960982
-3.341616 10.084590 -2.486556
0.448907 7.038486 5.891725
-1.187539 12.341957 0.091451
-8.060482 11.340691 -0.099260
-2.935268 11.649792 -1.123181
-1.267185 4.664833 4.502398
1.097553 6.512269 5.147670
2.022472 3.451799 -0.776810
-8.246687 14.480423 2.597394
0.952257 3.255175 1.313223
-0.574036 6.988529 -3.611309
4.144916 3.779531 0.336593
-5.541830 9.622552 2.420182
-6.853285 15.542797 -0.347494
-8.583770 9.843922 1.514536
-8.300868 15.539403 2.143891
0.584629 13.300254 2.633886
4.066221 10.333636 -0.232001
-8.052651 8.436295 -1.374018
-2.603021 16.535964 -0.799389
-8.309721 11.350698 1.864506
5.210137 6.343721 0.255356
-6.823900 11.686239 5.101710
-5.667774 5.155796 0.486718
-8.675803 8.468605 1.647967
-1.778336 9.982543 4.389741
-4.833464 10.166793 -0.546361
0.067559 4.026338 -1.660296
-2.970104 11.959376 2.073350
-6.931210 7.607191 -1.669712
-6.080543 7.140292 -1.678517
-6.586085 14.757584 4.242206
-8.807130 10.460173 0.333944
5.239237 7.171097 1.820773
-8.746913 7.631742 -0.143722
4.661969 6.675790 2.525376
4.710189 6.500641 3.006000
-6.443699 10.380062 -1.552189
-6.453403 10.761263 -1.489290
-5.430218 15.369828 1.710151
-4.549433 10.293887 4.178512
-5.683192 8.763387 2.371880
-6.212086 13.786317 4.382113
-6.250300 14.677885 2.804410
-1.271697 17.660634 -1.391767
1.657818 5.198465 4.661719
0.243366 9.421220 -1.911667
-2.630694 12.243208 1.215094
-8.212238 8.019257 -0.713708
-5.311042 15.608933 -0.339968
1.929482 9.810148 -2.275230
-5.069997 2.942988 4.024232
4.361612 9.427103 2.153173
-7.938898 15.004591 2.832139
-5.229003 3.401079 4.511243
-2.757345 18.552942 -1.155292
2.712653 10.344676 3.936925
-7.647853 7.872066 3.305675
-7.748712 8.143944 4.350428
-3.254664 4.455088 -2.157655
-8.473023 12.444907 1.969753
-9.238571 12.897811 0.616765
-9.354492 13.135453 1.185819
-5.989151 7.289250 -1.080729
-1.348197 7.096898 4.832766
-9.302693 12.854218 0.688538
3.496194 7.612118 3.541517
-2.049300 11.131141 3.983009
-2.076428 11.701209 -1.388214
1.968540 3.850686 -1.369643
-8.428317 9.256487 2.757244
-6.616026 17.945357 -5.555563
-2.266855 8.204271 -3.880000
-1.957462 7.934351 -0.605135
-6.947832 17.592716 -6.292166
-1.377721 7.568762 -3.862581
1.022751 8.091058 -3.211464
4.497424 6.799922 2.506899
0.095630 9.286325 -2.519758
-1.307214 3.720809 -1.578817
-0.470800 10.325074 -1.449707
-1.149552 3.628006 -2.563225
-7.572534 14.722029 -0.986978
-6.300305 12.133601 4.585749
-1.728878 3.492836 -2.448633
-2.812808 13.056350 1.257930
-2.338497 12.859813 1.032780
-8.447396 12.062310 0.336448
-2.941879 11.394036 3.987349
3.648441 4.223575 2.817329
0.798492 4.725659 3.984583
0.820436 7.711217 5.645017
-1.645257 12.076521 1.572435
-3.002864 7.487163 1.276723
-3.835600 16.246168 -1.807020
-4.279419 16.766648 -0.953287
-4.207717 16.835544 -0.986495
-6.632761 15.597082 -2.689503
5.846108 6.076131 2.290201
-5.187485 9.402631 1.217151
-2.863100 3.819095 3.362199
-5.764604 10.255129 -0.297007
-3.230342 12.535862 -1.802544
-3.190654 12.197300 -0.696361
-3.407038 12.177768 -0.662915
-2.165713 10.978875 -2.294929
0.354544 8.769654 5.496477
1.323688 3.707579 1.907809
0.625037 3.404318 1.745896
-8.669741 9.030845 2.628629
-0.324498 10.636240 3.819591
-3.704535 5.027972 4.561530
-8.846806 14.298143 3.763022
-1.859733 18.042787 -2.632985
2.149402 3.497238 1.912896
-4.980312 4.850234 3.326379
-2.947439 4.717981 4.839588
-6.405000 16.256762 -5.009279
-1.347177 11.209224 -1.925066
-6.337274 16.080356 -5.700920
-2.074462 6.562010 -3.646691
-5.064742 4.472870 4.360881
-6.342025 16.446118 -5.549157
3.823985 8.419379 -1.477666
-1.753861 7.937600 5.214261
-5.418372 6.654804 -1.194952
-5.420672 8.383936 4.086753
-5.304640 13.840606 -0.800550
-7.472370 10.218327 3.698511
-2.560753 3.250915 -2.750988
-9.074585 13.786543 2.019563
-4.995583 3.302410 -0.322578
-6.724592 9.346522 4.479711
-7.689833 15.408207 2.954600
-1.327846 11.877989 3.617491
-0.151641 6.717749 2.063561
-3.014086 16.002250 -0.327394
-5.583270 8.038541 4.364543
-3.202700 16.595058 -0.324858
3.618174 10.620308 1.091494
-7.315802 6.634827 1.740353
-8.976278 14.031993 -0.159172
-1.801564 3.988210 0.443630
-8.754175 11.046000 1.434061
2.899716 12.482752 2.553485
-2.638831 6.893346 -2.407065
2.250080 10.977496 3.814128
2.447421 7.310702 -2.728963
-2.748028 9.643142 -3.321671
-3.685377 4.203342 -2.994803
-5.170797 14.320706 1.849368
-5.036088 12.653526 0.366331
1.231670 5.974775 5.256209
-0.276330 6.982517 -3.517729
0.203984 12.500388 -1.162594
2.548909 8.261624 -1.939612
-0.020971 12.290311 -1.032077
-2.041926 4.971731 5.004734
2.782059 12.651062 0.429327
1.160025 5.750219 -3.160317
-7.029405 16.596819 -4.945393
3.747462 3.932438 0.853509
3.222327 11.768914 0.874429
-0.279554 8.700028 6.184164
-6.644856 3.539970 3.428346
4.400051 8.116392 -1.143650
-4.293673 11.385754 -0.516131
0.050633 12.107411 3.676826
-7.760424 17.065392 -2.351831
-0.448313 9.037630 5.314977
-8.343265 7.829352 0.271587
4.424801 6.071513 2.856035
-5.295613 10.878047 3.549706
-0.574043 9.077319 5.536172
-4.893894 9.917052 4.374366
-0.497248 9.965026 0.614727
-7.142736 14.031677 -0.914810
-8.103258 9.600243 -0.527729
-0.631240 12.161228 -0.139555
-8.395240 8.629851 1.127102
-6.189229 13.721963 -0.848480
-4.743922 9.395268 2.836806
-5.718290 13.241544 -0.600138
-5.807481 13.399349 -0.600239
-4.822856 3.514438 4.238023
-5.620270 9.739267 1.703559
-3.064684 7.824401 4.194748
0.629779 3.043341 4.784981
-1.129909 9.917628 4.858400
-5.843251 12.772290 3.930968
-5.531918 13.459338 -0.736409
-7.070422 6.563942 -0.050057
-6.910430 6.415934 -0.047061
-4.885309 3.490728 -1.624649
-6.264268 3.298048 3.904831
-7.190647 12.529214 -0.863408
-7.879525 16.738011 -4.299527
0.575892 12.185556 -1.823361
-7.704067 7.759291 2.855373
-6.421865 17.571179 -5.296079
-5.842801 15.068544 1.452090
-2.457816 15.995382 -1.372664
-4.407443 3.224356 -1.368837
0.307010 12.057029 -1.367258
-5.450181 9.042351 4.497927
1.711201 7.031848 5.419705
-9.796871 12.296604 2.327640
-0.754209 9.382484 0.002689
-4.206380 15.703113 0.824814
-9.303303 12.968373 2.425214
-5.639141 8.698680 -0.226433
1.674063 4.618850 4.326343
-6.319622 12.191472 -1.172673
0.934774 7.692631 4.801911
0.444992 12.431253 2.795595
-3.653945 3.934742 -1.598117
-6.946869 16.561987 -3.310819
0.584008 12.931636 2.616355
0.813013 11.083767 3.974897
0.869276 13.224341 2.696349
-5.885941 12.449745 4.571242
-8.637449 14.864069 3.168387
-1.298053 3.646921 3.055485
-1.193079 4.211811 -0.328153
-5.960706 8.333583 -1.538477
-1.912197 3.715399 3.019152
-1.374093 8.653870 6.158280
-4.219536 12.998587 1.742616
-8.871023 11.760645 4.621037
-0.891951 12.815327 -0.982875
0.012529 9.227366 -1.634358
-9.239015 13.236752 2.022398
5.896373 5.581068 0.576168
-5.842548 3.413827 4.537454
-0.495801 8.608782 3.020808
0.742514 9.646720 -2.683336
-1.417116 10.118481 5.046464
-2.958181 12.582453 1.041496
-5.790556 16.320255 -4.597377
0.513592 3.366485 0.612140
0.413867 3.394342 1.193387
-1.304004 6.201306 -3.122424
-2.774484 7.524881 -1.958209
-4.186506 7.246005 1.327950
-6.892093 18.385342 -5.411016
-2.797111 15.626429 -1.365974
2.369184 10.485049 -1.704658
-7.810768 15.300729 -0.753294
0.354483 11.620223 -1.374568
-2.494416 11.364878 -1.513883
-0.358607 12.148709 -1.766272
2.897886 5.672139 4.437009
-2.725933 7.025276 2.118887
-3.230721 3.849398 -0.796495
1.261611 5.154910 -3.124213
3.285321 9.808657 -1.755837
-1.187150 3.885704 -0.173785
-2.150043 9.530272 3.853987
-5.638084 3.793221 3.205667
0.772480 7.590989 5.863286
-3.968800 11.132990 3.518392
5.456534 5.954374 2.781833
2.273797 4.850633 -2.339396
-0.135174 4.011861 4.068446
5.373930 5.819681 2.837744
-4.972815 14.009630 2.708902
5.214896 7.228104 0.907341
-4.787092 5.647742 2.676845
-1.226022 6.286948 0.028485
-5.009790 5.051815 1.482591
-5.818403 5.666698 0.760328
3.027099 10.419825 -1.435299
-5.177782 8.755633 0.458556
0.279712 5.497850 5.509911
-3.311366 12.879188 -1.006720
0.400703 5.194733 4.904762
1.635296 9.273982 -2.384670
1.827560 11.800100 -0.598560
-4.924926 10.768575 3.907608
0.236635 4.767549 4.853801
-5.863219 16.486231 -5.989559
-5.137312 9.360013 1.949344
0.243897 3.437495 4.052488
-8.483265 12.438037 4.923482
-8.582282 7.983170 0.865907
-6.854200 15.982546 -4.457057
0.073139 4.332108 -2.259822
-8.906218 12.619387 4.637491
-0.673581 9.120931 -0.483977
-3.986126 10.435277 4.610535
-4.301452 12.844030 0.256894
-2.189246 6.134846 -3.897207
3.067712 11.067544 0.568584
3.050528 11.123824 -1.431385
4.657317 4.400198 2.315954
-5.468259 5.269668 0.617918
-4.649025 10.568388 4.069807
-2.587472 18.272477 -2.045687
2.360486 11.573977 -1.074805
-8.155275 9.218817 -0.809391
-6.550581 14.663927 -4.029459
-5.891695 12.585647 -1.555437
1.982867 4.597094 -1.871506
-4.989694 13.000658 -0.209765
-5.645644 12.707605 -0.196604
-5.614574 3.872204 4.219139
-5.712651 3.925585 5.068873
-2.493356 3.148674 0.306173
-6.075243 11.778719 -0.573307
-2.508064 4.216152 -0.277304
-6.698003 15.039499 0.186968
-1.217505 9.843438 4.980509
-1.379767 10.685348 -0.298190
3.446033 8.960726 -1.195737
-1.101801 9.859033 5.019901
-1.615298 16.570449 -0.778927
-7.208589 17.801967 -3.611303
-7.773553 14.541726 -2.656734
-2.959328 5.229829 -2.036374
-5.396932 2.932188 0.094038
-0.327953 9.961839 0.495982
-0.323053 13.254805 2.884013
-2.641828 5.111106 -2.098321
-1.978099 6.808623 -3.969753
-0.161240 9.407897 2.198887
-2.663031 11.094006 4.197886
-7.761226 9.140845 3.739477
4.280350 8.123733 3.652646
2.577198 4.272048 -1.187104
-6.898650 8.879790 4.653105
-4.661057 7.345251 -1.136093
-0.033625 3.943107 4.588533
4.338592 9.871033 0.416837
-7.251138 16.781179 -3.788668
-4.921273 15.014126 0.783925
-0.533873 3.882779 -0.098777
-4.077937 3.123706 -0.517510
-8.688738 13.916376 4.324584
-0.253485 9.456901 -3.483532
-2.636119 13.220006 2.428528
-3.047435 3.816564 2.473582
-1.197336 10.664040 -1.236531
-1.569283 8.475137 -2.444944
-2.211727 12.553562 2.275396
3.128430 7.334204 -2.669639
2.097384 6.753280 5.699118
-5.668481 3.802846 -0.008046
0.028143 10.816947 2.414831
-7.569567 15.390683 0.464396
-8.274672 13.731091 4.673949
2.575075 12.318910 1.480316
6.092328 6.182250 2.109927
5.803698 6.021460 2.556861
-1.493723 3.066790 -2.723576
4.500943 8.595073 -1.439016
-2.792784 17.062229 -1.227352
-5.001306 6.465538 -1.607224
4.443090 8.504607 3.277959
4.324513 8.794396 3.070863
3.433017 9.650038 3.629093
-0.648224 6.923882 2.586286
1.370556 4.642662 5.200735
1.453008 4.361193 4.622816
1.728677 12.936893 -0.755147
-2.781741 16.512828 -1.677230
0.151862 8.851028 5.985991
-3.427850 3.651765 -0.184625
1.675148 3.498406 -1.040750
-5.149187 8.947236 -1.410037
-6.767785 13.361974 -0.421109
-4.757476 8.704149 -1.308962
-8.267281 8.075989 1.508282
3.253431 3.621276 -0.732998
-6.226886 3.751723 4.773431
-8.459582 8.273571 1.830339
-5.702998 13.109242 -0.618033
-3.907865 11.374004 -0.028847
-7.861906 9.764147 -0.956743
3.056790 3.500136 1.158500
-2.872199 6.363626 -3.105833
2.912264 8.776203 -2.093420
0.647045 13.159383 1.491041
2.086970 6.316342 -1.932272
2.708130 6.170248 -1.959335
-3.748974 6.058639 4.081443
-1.192277 9.694697 -0.463815
-7.977944 6.965590 0.177488
4.568886 8.387299 1.928363
-1.374456 9.142089 -1.380331
-0.762255 10.506742 1.461769
0.483215 9.472550 -0.831183
-2.003467 17.846898 -1.796796
-2.660495 9.113121 -3.685153
-5.299972 5.973576 -0.138649
-2.816758 9.084222 -3.094380
1.539097 4.662493 5.083267
-6.409969 7.636875 4.311856
0.765120 12.779643 2.495538
-5.831751 13.996831 0.032682
-6.580951 9.524128 3.952631
0.561397 12.373757 3.623565
-5.464910 4.937796 -1.179882
-5.370652 14.361704 0.288625
1.742791 12.502846 -0.283804
0.271557 4.759823 4.891875
-5.431061 7.717245 0.254538
1.727833 11.768258 -0.955643
1.800053 12.625026 -0.784430
1.225922 5.384060 -2.908560
-3.270641 7.790811 -2.852564
0.675909 7.529343 -3.592036
1.068183 4.902548 -3.334298
4.664128 4.554069 2.196348
-1.348779 10.567678 3.042093
5.178334 4.623399 2.413197
2.265429 6.912226 4.763066
6.020266 6.613314 1.854658
-3.604545 3.164939 -3.357825
-4.026153 8.167192 -0.263680
-2.883274 13.300983 -0.366618
-5.236017 9.950243 4.718522
1.372480 9.550230 4.269902
-8.203826 12.070587 4.459218
-3.577549 17.462185 -0.823831
-2.418486 16.056229 -1.364281
-3.228669 3.281515 -2.185438
-2.487575 17.294669 -2.272660
-6.744724 15.870777 -1.162806
-2.075948 7.171179 3.621627
-0.448929 9.217165 5.866099
-1.315902 4.442361 2.352646
-2.509158 8.740554 4.749806
-0.720223 9.430719 4.636997
-7.910019 7.317093 2.357666
-0.548889 9.657618 5.367773
5.004994 6.400995 -0.297761
1.057768 2.955216 2.107881
-3.287870 3.464158 -0.268597
-9.053061 11.845715 2.208143
-8.496299 15.539046 2.879009
-8.435980 9.595684 2.225001
-1.747429 3.900006 1.917172
1.777048 3.635722 2.576396
-4.531601 14.562708 1.207257
-7.191683 17.006766 -3.602900
-4.550957 8.314971 -1.255384
-3.107489 10.233259 -1.771562
-8.448508 13.776201 5.374773
-5.098281 14.317007 1.637374
-4.947668 4.740037 4.217596
-4.074782 7.683798 -1.872906
-5.907478 14.136971 3.820383
-4.549322 10.708880 4.011094
-4.728048 10.801282 4.615997
-8.340021 8.913716 -0.928468
1.299455 11.679947 -1.587525
-8.439817 8.271056 -1.025429
-1.809153 3.731907 5.585488
-4.254399 13.160990 0.362277
-5.677300 8.910469 -1.935536
-1.997770 18.312001 -1.492307
-8.628817 11.078143 -0.138459
-1.146617 10.062770 5.187307
-5.233335 14.779727 1.939163
-6.447840 15.754796 -4.927998
-1.075952 9.827430 5.382183
-3.051963 5.842506 -2.342590
-5.517377 9.664522 -1.366694
0.314955 5.657361 -3.630110
2.130851 4.157873 -1.470367
1.650819 4.025435 -1.752959
-3.982336 10.581550 3.432732
-4.955525 4.517807 3.861176
-1.923075 9.472519 -3.247227
-1.401053 9.399793 -3.322903
2.479590 4.170530 1.496420
0.069159 3.358131 -2.460386
-7.654626 7.745087 2.766093
1.089661 11.442680 -1.437465
-1.440387 11.204853 -1.868335
6.060788 7.366189 0.862844
-7.903479 9.002884 -1.187463
-2.823584 12.639479 2.179146
2.437111 6.994519 4.570289
-7.049649 15.612056 -3.174798
-5.555654 3.083244 0.212517
-5.169933 3.421224 0.270250
-8.451529 13.227639 5.344535
-9.236530 13.940466 1.861041
-8.409540 13.537188 2.745472
4.386970 3.945282 2.011801
-8.578414 14.110648 2.240771
-9.359122 13.337676 3.599836
5.282314 5.396677 2.265611
5.663636 5.349292 3.173364
-5.402626 8.979771 3.948599
-1.442770 9.483461 -2.764782
-7.129995 3.878472 0.705188
-3.013236 8.016226 -3.656205
3.549149 10.752207 0.513395
-1.833928 9.742494 -3.227961
-2.130818 9.264186 -2.972246
5.419903 4.656277 2.269504
-4.159380 9.891010 -2.167185
-7.955021 15.186638 3.321127
-3.299310 3.719862 5.123739
-3.650578 9.089926 -2.190871
-0.634674 3.798923 -1.535867
-7.266059 10.150621 -1.324944
0.281481 9.747396 4.851181
-2.296060 7.638706 2.714480
-0.422288 10.109899 0.877939
-2.435757 8.651875 4.175831
-9.090102 12.764099 3.585228
-1.173950 6.853758 -3.709864
-7.477215 3.927855 0.128512
2.321447 11.001558 4.262696
-7.063051 4.015749 0.122953
1.786012 11.833787 -1.315666
-1.954917 10.989028 3.763355
-7.025579 12.244971 -1.503254
-3.805832 7.298920 0.615679
-6.692057 12.384885 -0.898635
-6.578817 12.639174 -1.176468
-7.851757 7.815645 3.579189
-8.718304 14.820995 3.976008
2.296018 4.064474 4.502851
-2.139202 13.318202 0.051889
1.641729 3.919266 4.626549
2.851714 9.505957 4.315841
-3.913381 5.368905 4.703857
6.078154 6.675590 1.464592
-0.629740 13.266083 0.494358
-0.234173 8.391870 5.413532
-4.095583 11.437450 -0.352879
-6.306524 14.391804 -2.095558
-2.807793 7.356355 -3.170745
-1.874923 6.827479 -3.884560
-3.470151 16.977242 -0.115950
-8.917181 14.342882 3.116228
-0.998109 12.413780 -0.909244
3.509307 10.515785 1.899233
0.976364 5.415475 5.574190
-0.917921 7.153586 -3.627535
-3.534546 16.977749 -0.033346
-8.047202 15.851149 0.255535
-2.138559 11.863612 3.874542
-3.805239 11.951971 -1.725162
-3.940271 10.583461 -1.459939
2.273779 4.833738 -1.544254
3.766327 8.913828 1.473210
0.981347 6.580937 5.452504
2.492849 3.982674 -1.125631
-4.149822 5.998711 3.561873
-5.052676 6.578190 3.610508
-6.290512 15.303290 -4.324547
-5.532818 6.514873 3.491728
-0.414125 12.519390 -1.488253
-0.921730 11.451647 1.974439
-2.855992 8.847760 -3.578461
-5.586562 6.496608 4.025324
-3.648655 6.343135 4.120624
-2.216118 11.657358 -2.350580
-0.018684 3.157538 -2.497546
-4.531561 13.092009 1.036348
-6.721944 14.170989 -2.157312
-3.393639 12.885150 2.069185
1.279496 13.014421 0.867205
4.271962 8.834780 1.182390
-0.109027 4.319732 4.469578
3.655903 8.872983 -1.592274
1.235328 5.528258 -2.945367
-7.221276 3.489360 0.176887
4.334633 10.100194 1.788756
-1.797480 12.990245 3.061320
4.445987 10.440218 1.284490
5.600626 7.284014 1.571365
1.346671 9.742569 5.079979
-7.823732 9.138645 3.660381
-5.956634 15.846070 0.269912
-8.342406 7.599189 3.384104
-0.548805 8.981032 5.688002
-5.170519 8.343118 -2.258500
-0.263256 3.498595 -2.286752
5.708568 5.089284 1.018153
1.587096 4.275924 -1.311338
-9.257178 13.042474 2.101052
-4.549219 10.844776 3.932088
-4.576688 3.063848 4.106634
1.904593 3.975329 -2.105458
-8.319395 11.902627 4.920094
-3.736721 9.050752 3.628216
-7.596991 7.686261 -0.564410
-5.715839 4.493745 3.977018
3.738796 11.069058 0.701637
-8.078235 16.024680 -2.148449
-8.100996 8.225750 -0.953929
-3.144205 6.389110 -2.821183
4.359369 8.683227 1.065447
-2.181242 8.192494 2.984337
4.331970 8.182497 -0.017630
-2.554753 12.242519 2.594170
-0.663302 3.430088 2.516506
5.299167 7.510198 0.661043
-2.615657 5.588983 -2.325893
-3.386497 5.387618 -1.571350
-0.277484 7.978111 -3.655772
-2.349947 6.719798 0.328162
-6.008573 3.673484 4.560898
-3.366903 12.799651 -0.456218
-7.386786 11.645131 -0.712657
-0.233498 9.269318 -3.428931
-9.763533 13.370394 1.807752
3.032015 7.644561 3.950539
-6.738461 10.841528 5.022605
-0.159240 3.767254 -2.505597
-6.448644 16.791159 -4.367002
-2.939030 3.941504 3.232253
-2.533358 17.086065 -1.753631
-3.334405 15.517033 -0.808457
-8.992886 9.923130 2.658927
-8.622055 9.476649 2.677742
1.376929 9.551634 4.404778
-0.960375 9.686649 -0.613936
-5.463232 3.567653 0.410975
-5.291555 16.101264 0.836882
-5.635025 15.504930 1.489358
-8.771608 13.544751 4.421359
-8.417300 14.327478 4.899887
4.003785 10.701382 1.115723
-8.180475 15.811995 -1.334790
-8.584411 8.891081 2.815485
-4.768380 16.147656 0.273654
-7.331040 6.259311 2.099532
4.080164 10.564669 0.915624
3.609792 10.119342 0.914137
3.850421 10.742627 0.423179
2.221322 3.429561 0.202106
-6.381204 10.400117 4.083808
1.830903 3.577532 -0.223128
-3.685665 3.420941 0.993142
-1.181035 10.507625 -2.266192
5.913646 6.096373 0.611627
-5.736730 15.740774 1.708207
6.037796 5.567790 0.838291
1.626539 7.506238 -2.919979
-2.476427 7.270530 -3.708595
-1.838187 12.561530 0.713764
-8.878164 12.519849 4.213131
1.552240 10.519123 4.289394
-4.385086 11.328950 -2.140341
-6.244667 16.627701 -4.558550
-7.263769 14.834220 -3.104204
-4.762037 5.773868 -1.128677
-1.161365 10.965055 3.757829
-2.639856 6.518015 0.826449
2.321381 7.821041 4.943961
4.535709 10.426650 0.902467
0.091924 10.078823 -1.849936
-7.280677 17.995543 -5.563118
-5.399016 9.028545 -0.762013
-7.067450 7.787180 -1.479810
-3.090229 6.198281 -0.993532
-2.245137 3.246423 3.815771
-2.163861 12.100956 0.211440
-3.359536 6.753456 -1.418610
-4.430254 3.663786 -2.270788
-1.962270 5.168189 -3.317174
-3.577308 5.061329 -2.842064
-3.552587 4.719279 -3.407206
-7.224559 15.183990 0.923472
-7.431684 15.075862 -1.052303
3.287003 10.369818 3.537913
-9.206672 9.178562 0.739546
-8.603506 10.913813 0.779799
-3.767398 9.176450 -0.986509
-8.531548 12.408660 4.295812
1.026061 4.667919 -3.163549
-5.110421 12.117343 3.576544
1.304388 5.828693 -3.225554
3.053377 9.137808 3.743592
-1.591519 12.729455 1.659903
-9.061043 14.163775 1.296799
-9.271708 15.044672 1.546377
3.981302 9.317943 4.176919
1.799955 4.857983 4.822737
-5.796328 13.873069 3.850040
0.181436 6.828335 5.351475
-4.205534 10.748504 -2.347602
-5.538877 11.838923 3.739011
0.918088 3.509751 -0.315242
3.561612 8.300439 2.998428
-5.944078 12.744653 -1.302000
-6.692948 12.531285 -0.887742
-8.581722 13.366831 0.166688
-5.903923 3.768501 -0.275651
-4.919820 14.953937 2.018281
-4.627878 11.266696 3.756354
-2.395909 8.525880 4.617602
-6.656408 12.875447 -0.783914
-1.831220 10.152874 5.083972
-2.396521 7.237304 4.527632
-0.552510 7.555933 2.897358
-2.875544 8.446007 4.663878
-8.031866 8.888739 -1.037306
-6.687912 6.340025 3.499111
-2.611360 8.145714 3.126114
-2.400234 5.052660 -2.555205
-9.857789 13.829657 1.885023
-6.576563 7.811872 -1.050618
-2.971570 6.148083 -2.458869
0.274839 9.534304 -3.096377
-3.486553 3.813914 -1.525004
-0.090306 4.023568 -2.414916
-3.936555 9.934515 2.398749
-7.971318 15.793127 1.551165
-5.762506 16.930431 -5.022363
-8.423173 15.089141 0.742543
1.108424 11.319615 -1.799410
5.314679 7.012766 0.747694
1.637697 4.030670 -2.167829
-6.420719 3.854075 -0.228906
-6.501454 3.296159 -0.103973
-8.536015 13.125904 3.618684
-8.543365 12.908034 4.262282
-7.221213 14.945985 -3.857611
-6.710486 10.801184 4.918969
1.739712 6.449287 5.495684
-6.688519 5.807806 2.145478
0.713833 4.786172 -3.462061
-3.561856 3.953793 -1.318230
-1.914585 16.826373 -1.987048
-3.891743 9.570353 4.128321
-2.934541 18.307513 -0.434921
-7.957967 9.104423 2.813333
-6.080198 11.846286 4.102840
-7.049772 9.585325 4.186010
-3.720620 6.547120 4.508836
-5.815066 10.127787 -2.087787
6.267478 6.979703 2.020135
-4.739380 6.541972 3.751912
1.946062 6.333949 -2.298911
-2.883695 6.556397 4.089981
6.066237 6.800002 2.016232
-3.761812 4.972189 4.215721
5.856433 6.924916 1.958864
-6.672657 6.748081 0.999585
-2.703388 11.943870 -0.026948
-2.937944 7.596593 -4.098395
-3.327090 7.490366 -3.576211
3.647530 4.609694 2.854374
-6.505313 15.787159 -4.471257
-4.233283 8.285232 -0.292995
-3.142386 11.439610 -0.950699
-5.527305 3.352619 1.362480
-2.122796 11.831948 -1.686674
